# .PCD v0.7 - Point Cloud Data file format
VERSION 0.7
FIELDS x y z
SIZE 4 4 4
TYPE F F F
COUNT 1 1 1
WIDTH 1427
HEIGHT 1
VIEWPOINT 0 0 0 1 0 0 0
POINTS 1427
DATA ascii
0.037813 0.015705001 -0.035851002
0.038003001 0.015704 -0.035772
0.048670001 0.0059839999 -0.023841999
0.050035998 0.0064989999 -0.023084
0.050882 0.006817 -0.022600001
0.052863002 0.0075920001 -0.02145
-0.022032 0.061305001 -0.0055869999
-0.021082999 0.061303001 -0.005469
-0.012532 0.061306 -0.0044030002
0.052827999 0.061305001 0.003764
0.072396003 0.061294001 0.0062299999
-0.019377001 0.015885999 -0.026219999
-0.017286999 0.015883001 -0.025969001
0.045042999 0.0048039998 -0.025821
0.045389 0.0049339999 -0.025644001
0.047272999 0.0056480002 -0.024628
0.047600999 0.0057740002 -0.024417
0.048094999 0.0059659998 -0.024131
-0.008165 0.015891001 -0.024839999
-0.0051279999 0.015882 -0.024453999
0.00095399999 0.015888 -0.02361
0.0022839999 0.015887 -0.023437001
0.0064650001 0.015887 -0.022986
0.04603 0.005376 -0.025296999
0.053536002 0.008254 -0.020950001
0.034019999 0.015866 -0.037611999
0.038194001 0.015891001 -0.035955001
0.057573002 0.015883001 -0.016514
0.058715999 0.015893999 -0.016362
0.073344998 0.015888 -0.014542
0.063846998 0.077636003 0.012778
0.059287 0.088464998 0.01729
0.062515996 0.088460997 0.017696001
0.047132999 0.0060029998 -0.024638001
0.051897001 0.0078419996 -0.021771999
0.047697 0.091885 0.017428
-0.020707 0.016073 -0.026273999
-0.0032259999 0.016077001 -0.024103001
-0.001325 0.016081 -0.023848001
0.001525 0.016083 -0.023467001
0.0058940002 0.01608 -0.022926999
0.044188 0.0050840001 -0.026257999
0.052441999 0.0082630003 -0.021348
0.054396 0.0089959996 -0.020397
0.055149999 0.0092669996 -0.020078
0.0098869996 0.016077001 -0.023196001
0.033252999 0.016091 -0.038214002
0.035151001 0.016093999 -0.037558001
0.037243001 0.016085001 -0.036649998
0.074864 0.016074 -0.014274
0.077712998 0.016070001 -0.013916
0.071638003 0.092646003 0.020793
-0.030585 0.077823997 0.001115
-0.016523 0.077830002 0.002875
0.053011 0.0086909998 -0.020948
-0.018805001 0.061485998 -0.005103
0.068025 0.061480999 0.0057640001
0.026038 0.077831998 0.0081709996
0.061186001 0.077822998 0.012539
0.054157998 0.061682999 0.0041209999
-0.011206 0.016269 -0.025048999
-0.0072150002 0.016271001 -0.024560001
-0.002656 0.016267 -0.023941999
0.002663 0.016263001 -0.023228999
0.0051369998 0.016283 -0.022888999
0.0072249998 0.016271999 -0.022810999
0.0079859998 0.016263001 -0.022856999
0.044438999 0.0055809999 -0.026123
0.048073001 0.006978 -0.023975
0.048393 0.0071020001 -0.023765
0.049194999 0.0074140001 -0.023250001
0.056384999 0.010141 -0.019357
0.0091279997 0.016263001 -0.022986
0.031163 0.016280999 -0.038950998
0.034201 0.016287001 -0.038245998
0.034770999 0.016282 -0.038010001
0.036292002 0.016279999 -0.037347
0.038197 0.016263001 -0.036467999
0.068975002 0.016268 -0.014901
0.080752999 0.016262 -0.013456
0.057767998 0.061685 0.0045799999
0.070118003 0.077831 0.013659
0.037436999 0.089795999 0.015171
-0.024312999 0.085616998 0.0055450001
-0.017855 0.061866 -0.0047980002
0.045391999 0.0061440002 -0.025587
0.046229001 0.0064650001 -0.025101
-0.015768001 0.016452 -0.025505001
-0.014248 0.016452 -0.025327001
-0.013107 0.016453 -0.025189999
-0.00094699999 0.016456001 -0.023627
0.008746 0.016456001 -0.022844
0.033445999 0.016450999 -0.038713001
0.033822998 0.016471 -0.038660999
0.037439998 0.016441001 -0.037087001
0.03782 0.016442001 -0.036913998
0.059854001 0.016455 -0.015969001
0.053040002 0.009327 -0.020694001
0.055224001 0.010132 -0.019688999
0.064415999 0.016461 -0.015383
0.071446002 0.016461 -0.014506
0.079233997 0.016453 -0.013545
-0.007214 0.061868999 -0.0034739999
-0.000375 0.061861001 -0.0026789999
0.00076600001 0.061868001 -0.0026080001
-0.016903 0.085617997 0.0064539998
0.045125 0.0064409999 -0.025738999
0.050997 0.008742 -0.021886
0.056724999 0.010913 -0.018917
0.031927999 0.085623004 0.01253
0.032496002 0.085611999 0.012593
-0.011586 0.016649 -0.024917001
-0.0096880002 0.016641 -0.024669999
-0.001895 0.016651001 -0.023672
4.9999999e-06 0.016651999 -0.023403
0.032685 0.016643001 -0.039174002
0.034781002 0.016628001 -0.038538001
0.057957001 0.016657 -0.016099
0.083222002 0.016639 -0.012971
0.05302 0.085625999 0.015175
0.045581002 0.0068199998 -0.025467001
0.047185998 0.0074439999 -0.02445
0.052480001 0.009536 -0.020833001
0.054990001 0.010461 -0.019618001
0.056221001 0.010934 -0.019018
0.057388 0.085620999 0.015736001
-0.027733 0.062061999 -0.005932
-0.023744 0.062059999 -0.005446
-0.014814 0.062057 -0.0043350002
-0.019564999 0.016842 -0.025746001
-0.012347 0.016836001 -0.024885001
0.048953999 0.0083529996 -0.023156
-0.010637 0.016833 -0.024700001
-0.0085479999 0.016829999 -0.024441
-0.0053170002 0.016836001 -0.024049001
-0.0043640002 0.016845001 -0.023910001
0.034396999 0.016829001 -0.039035
0.035916001 0.016835 -0.038344
0.061946999 0.016848 -0.015527
0.044667002 0.0068669999 -0.026024999
0.046123002 0.007431 -0.025122
0.048424002 0.0083480002 -0.023494
0.049168002 0.0086439997 -0.022919999
0.054156002 0.010599 -0.019792
0.054533999 0.01073 -0.019625001
0.054742999 0.010794 -0.019547001
0.055964999 0.011262 -0.018933
0.076764002 0.016835 -0.013683
0.001528 0.062049001 -0.002511
-0.020893 0.017039999 -0.025816999
-0.018803 0.017038999 -0.025558
-0.0060769999 0.017022001 -0.024039
0.0068450002 0.017037001 -0.022475
0.0076040002 0.017037001 -0.02249
0.034012001 0.017046999 -0.039489001
0.037239 0.017047999 -0.038123
0.037620999 0.017039999 -0.037935998
0.038383 0.017034 -0.037542999
0.065174997 0.017030001 -0.015034
0.045437001 0.0073680002 -0.025552001
0.054614 0.010962 -0.019509999
0.055132002 0.011164 -0.019247999
0.073156998 0.017038001 -0.014043
0.075626999 0.017035 -0.013735
0.063087001 0.062059999 0.0054179998
0.074105002 0.062050998 0.006792
-0.001892 0.088660002 0.0097390004
0.016348001 0.078024 0.0070449999
0.041237999 0.078020997 0.010152
-0.001893 0.062251002 -0.0026479999
0.066127002 0.062249999 0.0058909999
-0.026024001 0.062438 -0.0055499999
-0.021655001 0.062433999 -0.005014
0.050071001 0.009424 -0.022167999
0.053063001 0.010601 -0.020176001
0.055539999 0.011525 -0.018941
-0.013293 0.062442001 -0.0039730002
-0.011776 0.062431999 -0.003791
-0.020514 0.017225999 -0.025683001
-0.019564999 0.017221 -0.025558
-0.015383 0.01723 -0.025044
-0.0049370001 0.017213 -0.023806
0.0083630001 0.017231001 -0.022458
0.0091220001 0.017229 -0.022549
0.034579001 0.017237 -0.039562002
0.043556001 0.0070349998 -0.026725
0.044062 0.0072260001 -0.026442001
0.047628 0.0086409999 -0.023975
0.048934001 0.009176 -0.022942999
0.049532 0.0094130002 -0.022484001
0.052453 0.010576 -0.020438001
0.054156002 0.011232 -0.019517001
0.055948 0.011886 -0.018635999
0.056719001 0.012167 -0.018346
0.035920002 0.017202999 -0.038844999
0.0363 0.017199 -0.038681
0.038011 0.017201001 -0.038006999
0.058524001 0.017216001 -0.015778
0.080375999 0.01722 -0.013054
0.051495001 0.062431999 0.004123
0.046222001 0.0082780002 -0.025002001
0.050641999 0.010071 -0.021593001
0.051867999 0.010564 -0.020734999
0.053585999 0.062436 0.004398
0.068409003 0.062447999 0.0062620002
-0.017283 0.085809 0.0065000001
-0.019564001 0.017416 -0.025482999
-0.017282 0.017423 -0.025202001
0.030784 0.017411999 -0.040683001
0.033829 0.017386001 -0.040036999
0.054839 0.011885 -0.019007999
0.035730001 0.017393 -0.039220002
0.036109999 0.017387999 -0.039030999
-0.0094950004 0.085803002 0.0074550002
-0.026590999 0.062641002 -0.0055249999
-0.0047419998 0.062637001 -0.002816
0.046994001 0.0089969998 -0.024366001
0.051194999 0.01072 -0.021016
0.054127999 0.011854 -0.019211
-0.001131 0.062642001 -0.00238
0.0013370001 0.062642999 -0.002195
0.076196998 0.062627003 0.0073210001
0.049194999 0.010112 -0.022479
0.055796999 0.01268 -0.018304
0.057769001 0.085812002 0.015866
-0.015763 0.01761 -0.024913
-0.014243 0.017611001 -0.024721
-0.011205 0.017602 -0.024359999
-0.0034169999 0.017594 -0.023401
0.0047550001 0.017599 -0.022358
0.0062739998 0.017594 -0.022236001
0.031167001 0.017581001 -0.040860001
0.032304998 0.017599 -0.040660001
0.037432 0.017607 -0.038876001
0.038194001 0.017601 -0.038539998
0.060809001 0.085813999 0.016249999
-0.031721 0.078218997 0.0011540001
-0.011964 0.017795 -0.024352999
-0.0096840002 0.017797001 -0.024088999
-0.0041760001 0.017790001 -0.023394
0.044059001 0.0082179997 -0.026546
0.047722999 0.0097070001 -0.023685999
0.048843998 0.010172 -0.022725999
0.051155001 0.011118 -0.020869
0.056619 0.0132 -0.017903
0.000765 0.017794 -0.022759
0.0074149999 0.017782999 -0.022149
0.033254001 0.017795 -0.040762
0.034205999 0.017785 -0.040527001
0.035344001 0.017790001 -0.040045001
0.036292002 0.0178 -0.039609998
0.068784997 0.017789001 -0.014244
0.043049999 0.0080270004 -0.027185
0.044334002 0.0085270004 -0.026369
0.044927999 0.0087649999 -0.02592
0.045814 0.0091239996 -0.025241001
0.046672001 0.0094769998 -0.024537001
0.049892999 0.010816 -0.021779999
0.051672 0.011533 -0.02042
0.052299999 0.011778 -0.019996
0.055355001 0.01295 -0.018319
0.069927 0.017794 -0.014096
-0.028491 0.078218997 0.001565
-0.024503 0.078210004 0.0020610001
-0.023740999 0.078218997 0.0021609999
-0.0093040001 0.062818997 -0.0032939999
0.00019799999 0.062826999 -0.002165
0.001906 0.078206003 0.0053280001
-0.015384 0.017988 -0.024703
-0.010443 0.017990001 -0.024088001
-0.0093040001 0.017983999 -0.023934999
-0.00075599999 0.017979 -0.022862
0.002474 0.017979 -0.022473
0.0098850001 0.017981 -0.022321001
0.030593 0.017988 -0.041531999
0.032685999 0.017971 -0.041127998
0.03382 0.018002 -0.040945999
0.048067 0.010471 -0.023232
0.049855001 0.011216 -0.021637
0.053537998 0.012685 -0.019044001
0.056086 0.01362 -0.017863
0.056628998 0.013833 -0.017635001
0.034200002 0.017994 -0.040794
0.035912 0.017988 -0.04005
0.038385 0.017978 -0.039018001
0.058903001 0.017972 -0.015397
0.004375 0.078201003 0.0056369998
0.0089370003 0.078207999 0.0061960001
0.013496 0.078203999 0.0067639998
0.020148 0.078212 0.0076120002
-0.020512 0.063014999 -0.0045909998
0.061379001 0.063015997 0.0056489999
0.070876002 0.063004002 0.0068310001
0.026606999 0.078208998 0.008409
0.032118998 0.078217 0.0090979999
0.043299001 0.0087069999 -0.027138
0.046783 0.010134 -0.024360999
0.056901 0.014129 -0.017434999
0.034968998 0.078216001 0.0094489995
-0.020137001 0.018165 -0.025222
-0.018805999 0.018167 -0.025054
-0.0096840002 0.018174 -0.023893001
-0.0077829999 0.01818 -0.02365
-0.0066430001 0.018178999 -0.023511
-0.001137 0.018166 -0.022815
0.0030429999 0.018165 -0.022306999
0.030594001 0.018176001 -0.041763
0.031732999 0.018178999 -0.041552
0.033629999 0.01819 -0.041216001
0.047653999 0.010709 -0.023491999
0.053645998 0.013147 -0.018792
0.053987 0.013275 -0.018602001
0.055668 0.013881 -0.017868999
0.035914 0.018170999 -0.040295999
0.036678001 0.018154999 -0.039995
0.037624002 0.018172 -0.039650999
0.058148999 0.018184001 -0.01538
0.076575004 0.018169001 -0.013085
0.083416 0.018170999 -0.012237
0.045991998 0.010208 -0.025022
0.048098002 0.011111 -0.022987001
0.049038 0.011507 -0.022109
0.050003 0.011912 -0.021257
0.052228998 0.012817 -0.019575
0.054738998 0.013774 -0.018126
-0.0089250002 0.063197002 -0.0030660001
0.056435999 0.063196003 0.005109
0.071638003 0.078210004 0.01402
-0.024692001 0.063396998 -0.0049399999
-0.019757001 0.018355001 -0.025093
-0.011585 0.018363999 -0.024053
-0.0081630005 0.018370001 -0.023600999
-0.0045540002 0.018363999 -0.023155
0.0085549997 0.018358 -0.021952
0.030402999 0.018368 -0.042022001
0.034968 0.018347999 -0.040906999
0.036107998 0.018347001 -0.040479001
0.043543998 0.0093970001 -0.027073
0.045263 0.010104 -0.025666
0.047123 0.010897 -0.023901001
0.049493 0.011911 -0.021609999
0.050469998 0.012321 -0.020772001
0.054981001 0.014072 -0.017919
0.055583 0.014286 -0.017717
0.055982001 0.014419 -0.017563
0.056681 0.014697 -0.017233999
0.075626001 0.018363999 -0.013125
0.076385997 0.018363001 -0.01302
0.076955996 0.018363001 -0.012956
-0.015765 0.063385002 -0.003828
0.050168 0.063392997 0.0044169999
0.052258 0.063392997 0.0046689999
0.063846998 0.063391 0.0061320001
0.071448997 0.063395999 0.0070839999
0.033448 0.088659003 0.014137
-0.019378001 0.018541999 -0.024948999
-0.015957 0.018544 -0.024525
-0.014628 0.018541999 -0.024364
-0.0051230001 0.018557999 -0.023143001
0.001146 0.018554 -0.022314001
0.0070349998 0.018554 -0.021771001
0.044532001 0.0099950004 -0.026312999
0.050657 0.012604 -0.020512
0.05232 0.013275 -0.019307001
0.053771999 0.013842 -0.018399
0.056366999 0.014796 -0.017275
0.008746 0.018541999 -0.021864001
0.029643999 0.018554 -0.042355001
0.036860999 0.018563 -0.040493999
0.038004 0.018550999 -0.040019002
0.060424 0.018546 -0.014945
0.064983003 0.018541001 -0.014367
0.037250001 0.088666998 0.014631
0.053206999 0.089796998 0.017148999
-0.033620998 0.086006999 0.0045759999
-0.028873 0.086001001 0.0051660002
0.044773001 0.010299 -0.026106
0.048392002 0.011861 -0.022483001
0.053195 0.013808 -0.018664001
0.054515999 0.014331 -0.017902
-0.017859001 0.018727999 -0.024676999
-0.012727 0.018733 -0.024026999
-0.0026529999 0.018750001 -0.022739001
-0.00037200001 0.018751999 -0.022430001
0.0022859999 0.018745 -0.022112001
0.003424 0.018739 -0.021965999
0.0062750001 0.018739 -0.021697
0.032683998 0.01874 -0.042038999
0.043175001 0.0098369997 -0.027448
0.046037 0.011043 -0.024857
0.051789999 0.013491 -0.019472999
0.054216001 0.014432 -0.017953999
0.055780001 0.014978 -0.017355001
0.033252999 0.018748 -0.041939002
0.076765001 0.01874 -0.012807
-0.027352 0.078405999 0.001805
0.00057700003 0.078400001 0.0052629998
0.0066559999 0.078396998 0.0060100001
0.010267 0.078400999 0.0064519998
0.024898 0.078400999 0.0082909996
0.038006999 0.078400001 0.0099299997
-0.02355 0.063782997 -0.004619
-0.013102 0.063775003 -0.0033100001
0.043736 0.010268 -0.027036
0.048117001 0.012158 -0.022626
0.049144 0.012606 -0.021589
0.051107999 0.013415 -0.019902
0.054983001 0.014933 -0.01749
0.055982001 0.015279 -0.017132999
-0.016527001 0.018926 -0.024413999
-0.0070270002 0.018925 -0.023220999
-0.0034129999 0.01894 -0.022747001
-0.001133 0.018939 -0.022452001
0.0030459999 0.018934 -0.021931
0.0041860002 0.018935001 -0.021764001
0.007795 0.018926 -0.021589
0.029643999 0.018932 -0.042783
0.043145001 0.010215 -0.027563
0.044535998 0.010794 -0.026355
0.045559999 0.011242 -0.02531
0.046177998 0.011514 -0.024638001
0.052349001 0.014131 -0.018883999
0.053144 0.014443 -0.018367
0.056607001 0.015711 -0.016767999
0.030977 0.018913001 -0.042548001
0.034208 0.018916 -0.041864
0.035913002 0.018936001 -0.041283999
0.037625 0.018929999 -0.040623002
0.063083999 0.018925 -0.014427
0.076765999 0.018933 -0.012734
0.078096002 0.018932 -0.012555
0.045143001 0.011262 -0.025741
0.046856001 0.012021 -0.023848999
0.050055999 0.01341 -0.020586001
0.052549999 0.014425 -0.018648
0.054708999 0.01526 -0.017394001
0.056812 0.016019 -0.016559999
0.081326999 0.018935001 -0.012154
-0.0039849998 0.063763 -0.0022
0.051116001 0.063766003 0.0046879998
0.073348999 0.063775003 0.007495
0.043517999 0.078403004 0.01062
-0.010634 0.085996002 0.007406
0.037625998 0.085992001 0.013428
0.044073999 0.010998 -0.026818
0.044596002 0.011224 -0.026303999
0.046069998 0.011876 -0.024684999
0.047766998 0.012633 -0.022777
0.049151 0.01324 -0.021321001
0.050948001 0.013986 -0.019734999
0.053249002 0.01491 -0.018122001
0.054939002 0.015559 -0.017184
0.056115001 0.015970999 -0.016737999
0.010648 0.078592002 0.0065830001
0.027748 0.078593999 0.0087289996
-0.02241 0.063974999 -0.0043919999
-0.019752 0.019131999 -0.024723001
-0.011017 0.019114001 -0.023646001
-0.0087369997 0.019113 -0.023351001
-0.0066459998 0.019119 -0.023094
0.001147 0.019129001 -0.022035999
0.0022859999 0.019122999 -0.021919001
0.004375 0.019122001 -0.021639001
0.005134 0.019118 -0.021571999
0.042817 0.01067 -0.027969999
0.04721 0.012594 -0.023329999
0.052650999 0.01489 -0.018397
0.055411 0.015927 -0.016921001
0.056524999 0.016346 -0.01646
0.036104001 0.019122999 -0.041437998
0.037050001 0.019131999 -0.041071001
0.058904 0.019114001 -0.014855
0.061942 0.019109 -0.01449
0.067073002 0.019112 -0.013845
0.074483 0.019112 -0.012937
0.048602 0.013421 -0.021708
0.051468 0.014628 -0.019126
0.053537998 0.015429 -0.01777
-0.0089229997 0.063961998 -0.00269
-0.007214 0.063956998 -0.002501
-0.0047439998 0.063956998 -0.002201
-0.0032240001 0.063956 -0.0020069999
0.00057600002 0.063954003 -0.0015829999
0.060807001 0.063960001 0.0060020001
0.043742999 0.011444 -0.027225001
0.044362999 0.011725 -0.026556
0.045784999 0.012363 -0.02489
0.046376001 0.012631 -0.024195001
0.049270999 0.013924 -0.020909
0.053761002 0.015721001 -0.017543999
0.054398 0.015982 -0.017147001
-0.018231999 0.019321 -0.024453999
-0.016714999 0.019314 -0.024247
-0.0075960001 0.019307001 -0.023132
0.0038069999 0.019319 -0.021633999
0.004377 0.019319 -0.021554001
0.006085 0.019315001 -0.021406
0.033064999 0.019306 -0.042610001
0.034968 0.019298 -0.042047001
0.060045999 0.019311 -0.01462
0.061563 0.019300001 -0.014437
0.077335 0.019309999 -0.012494
0.044797 0.012119 -0.026036
0.047711998 0.013445 -0.022523999
0.036109 0.078597002 0.0097759999
0.051688001 0.078590997 0.011715
0.067266002 0.078582004 0.013658
0.039907001 0.085996002 0.013705
-0.017092001 0.019514 -0.02421
-0.016333001 0.019509999 -0.024119001
0.0032329999 0.019495999 -0.021652
0.042764999 0.011422 -0.028208001
0.043949001 0.011931 -0.027061
0.050009999 0.01467 -0.020006999
0.051456999 0.015248 -0.018829999
0.052044999 0.015493 -0.018383
0.052836001 0.015807001 -0.017866001
0.053488001 0.01606 -0.017467
0.055468 0.016783001 -0.016508
0.056593001 0.017205 -0.016057
0.007795 0.019513 -0.021265
0.036293998 0.019502001 -0.041797001
0.038010001 0.019482 -0.041056
0.038387999 0.01949 -0.040948
0.057576999 0.019508 -0.014826
0.073344998 0.019498 -0.0129
0.080185004 0.019498 -0.012046
0.045403 0.012801 -0.025251999
0.045852002 0.013011 -0.024676001
0.053862002 0.016409 -0.017124999
0.054706 0.016743001 -0.016671
0.057197999 0.085998997 0.015885999
-0.01956 0.078791 0.0029440001
-0.0034119999 0.078783996 0.0049530002
0.010648 0.078782 0.0066729998
0.053208001 0.064153999 0.0051469998
-0.014242 0.019701 -0.023786999
-0.0075969999 0.019683 -0.022953
-0.0062660002 0.01969 -0.022785001
-0.0055069998 0.019684 -0.022698
0.042474002 0.011686 -0.028579
0.044785999 0.012723 -0.025996
0.048907001 0.01462 -0.020877
0.052737001 0.016197 -0.017677
0.055183999 0.017109999 -0.016407
0.056315999 0.01753 -0.015958
0.056706998 0.01767 -0.015814001
-0.002657 0.019685 -0.022335
0.0055149999 0.019691 -0.021269999
0.005897 0.019702001 -0.021236001
0.0070349998 0.019688001 -0.021186
0.029643999 0.019695001 -0.043641001
0.034205001 0.019688001 -0.042750001
0.037820999 0.019672001 -0.041351002
0.059096001 0.019692 -0.014562
0.071061999 0.019679001 -0.013094
0.043007001 0.012115 -0.028144
0.043621998 0.012384 -0.027472001
0.046629 0.013787 -0.023558
0.049571998 0.015119 -0.020072
0.051518999 0.015938001 -0.018389
0.054267 0.017004 -0.016667999
0.054614998 0.017139999 -0.016497999
0.057172 0.018048 -0.015566
0.064985998 0.064145997 0.0066169999
0.069357999 0.064152002 0.0071669999
0.011405 0.078772999 0.0067599998
0.024898 0.078781001 0.0084610004
0.066886999 0.093212999 0.020469001
-0.030394999 0.078961998 0.001669
0.045908 0.013655 -0.024452001
0.047431 0.014373 -0.022389
0.050151002 0.015578 -0.019439001
0.054898001 0.017436 -0.016306
0.055836 0.017790999 -0.015938001
0.056221001 0.017924 -0.015778
-0.011583 0.019889001 -0.023367999
0.0020949999 0.019880001 -0.021619
0.0087440005 0.019889001 -0.021103
0.060805999 0.019881999 -0.014253
0.062137 0.019885 -0.014085
-0.022412 0.078974001 0.0026750001
-0.018611001 0.064347997 -0.00373
-0.016522 0.064346999 -0.0034690001
-0.012152 0.064343996 -0.002931
-0.000375 0.064333998 -0.001493
0.048625998 0.015134 -0.020842001
0.049766 0.015629999 -0.019657001
0.050737001 0.016038001 -0.018812001
0.051151 0.016212 -0.018448001
0.051879 0.016512999 -0.017878
0.052524999 0.016747 -0.017450999
0.052827999 0.01688 -0.017245
0.056692999 0.018299 -0.015527
-0.020328 0.020063 -0.024385
-0.0039869999 0.020064 -0.022337001
-0.0032279999 0.020060999 -0.022242
-0.00056700001 0.020066001 -0.021881999
0.030592 0.020087 -0.043889999
0.032875001 0.020066001 -0.043469001
0.034581002 0.020081 -0.043072999
0.057574999 0.02007 -0.014562
0.069544002 0.020063 -0.013096
0.002477 0.064337999 -0.001305
0.042603999 0.012514 -0.028731
0.042970002 0.012684 -0.028323
0.044752002 0.013511 -0.026002999
0.045588002 0.013916 -0.024798
0.047067001 0.014624 -0.022699
0.048184 0.015149 -0.021253999
0.049936 0.015915999 -0.019392001
0.051171999 0.016434001 -0.018291
0.053194001 0.017236 -0.01691
0.054418001 0.017697999 -0.016287999
0.055024002 0.017905001 -0.016075
0.055396002 0.018046999 -0.015927
0.055966001 0.018252 -0.015693
0.053587001 0.064337999 0.0052820002
-0.0091120005 0.020273 -0.022879001
-0.0083529996 0.020269001 -0.022777
-0.0064539998 0.020266 -0.022536
0.00095299998 0.020253999 -0.021602999
0.0019039999 0.020258 -0.021481
0.029834 0.020260001 -0.044185001
0.033066001 0.020253001 -0.043648999
0.034774002 0.020262999 -0.043232001
0.035535999 0.020256 -0.042932
0.043749001 0.013236 -0.027379001
0.045947 0.014297 -0.024212999
0.047630999 0.015108 -0.021810001
0.037622999 0.020262999 -0.042144001
0.058334 0.020254999 -0.014404
0.067074999 0.020258 -0.013295
0.054728001 0.064343996 0.0054199998
0.075057 0.064340003 0.0079690004
-0.014051 0.078974999 0.0037179999
-0.012341 0.078977004 0.0039269999
-0.0064519998 0.020462001 -0.022445999
0.042222001 0.012734 -0.029263999
0.043411002 0.013264 -0.027877999
0.044466998 0.013778 -0.026381999
-0.0060729999 0.02046 -0.022403
-0.0047419998 0.020462999 -0.022251001
-0.001894 0.020455001 -0.021880001
0.00019200001 0.020439001 -0.021614
0.0028530001 0.020445 -0.021274
0.004185 0.020448999 -0.021082999
0.006083 0.020440999 -0.020866999
0.031732999 0.020461001 -0.044094
0.033635002 0.02045 -0.043742001
0.036109 0.020437 -0.042911999
0.046418 0.014949 -0.023313999
0.064797997 0.020458 -0.013489
-0.010061 0.078979 0.0042079999
-0.0062620002 0.078974001 0.004673
-0.008161 0.064539999 -0.0023320001
-0.0053130002 0.064530998 -0.001986
-0.017666999 0.020636 -0.023786999
-0.013677 0.020633999 -0.023304
0.007795 0.020634999 -0.020682
0.029835001 0.020640001 -0.044527002
0.032685999 0.020633001 -0.044103999
0.042592 0.013283 -0.029000999
0.043157 0.013543 -0.028282
0.045666002 0.014785 -0.024421999
0.033826999 0.020632001 -0.043901
0.059473999 0.020633999 -0.014094
0.060805 0.020638 -0.013916
0.079233997 0.020634999 -0.011638
0.050354999 0.064521 0.0049410001
0.059477001 0.064528003 0.0061030001
0.0036190001 0.078975998 0.0059110001
0.010646 0.078965999 0.0067750001
0.043556001 0.013937 -0.027735
0.045979001 0.015157 -0.023797
-0.011017 0.020823 -0.022879001
-0.0068359999 0.020827999 -0.022345999
-0.002844 0.020835999 -0.021837
-0.00037299999 0.02084 -0.021500001
0.000956 0.020835999 -0.021345001
0.044794999 0.014759 -0.025739999
0.045552999 0.015146 -0.024463
0.046799999 0.015781 -0.022406001
0.031732 0.020842999 -0.044443998
0.033252999 0.020835999 -0.044202998
0.036102999 0.020834999 -0.043363001
0.037239 0.020845 -0.042923
0.038197 0.020823 -0.042546999
0.057578001 0.020839 -0.014232
0.067456 0.020832 -0.01298
0.068595998 0.020831 -0.012841
0.070116997 0.020834999 -0.012653
0.072205998 0.020832 -0.012407
0.074864 0.020825 -0.012092
0.077714004 0.020823 -0.011741
0.042126998 0.013645 -0.029774999
0.044 0.014554 -0.027051
0.044923998 0.015035 -0.025439
0.082843997 0.020825 -0.011094
0.083605997 0.020831 -0.011003
0.024897 0.07897 0.0085460003
0.053966999 0.078965001 0.012175
-0.027543999 0.064717002 -0.0046819998
0.042906001 0.014206 -0.028832
0.044234999 0.014885 -0.026605001
0.045233998 0.015406 -0.024811
-0.015573 0.064722002 -0.0031659999
-0.010632 0.064724997 -0.002569
-0.0064519998 0.064724997 -0.0020349999
-0.020136001 0.021018 -0.02392
-0.015387 0.021012999 -0.023329001
-0.00075200002 0.021029999 -0.021472
0.000195 0.021021999 -0.021361999
0.042261999 0.014091 -0.029792
0.04456 0.015257 -0.025986999
0.044819001 0.015397 -0.025488
0.0020969999 0.021028999 -0.021102
0.0068450002 0.021015 -0.020519
0.033822998 0.021025 -0.044268999
0.034582999 0.021026 -0.044096
0.057957001 0.021027001 -0.014131
0.062706001 0.021020999 -0.013526
0.069735996 0.021021999 -0.012617
0.0020959999 0.064705998 -0.001118
0.076577 0.064719997 0.0083349999
0.043184001 0.014729 -0.028484
0.043816999 0.015067 -0.027348001
0.046096999 0.016287001 -0.02304
0.072396003 0.078961998 0.014467
0.04219 0.088858001 0.015341
0.045230001 0.088855997 0.015713001
-0.026211999 0.079164997 0.002292
0.024135999 0.079154998 0.0085359998
0.025658 0.079161003 0.0087339999
0.048268002 0.079159997 0.011564
0.001335 0.02121 -0.021137999
0.0083649997 0.021209 -0.020377001
0.029835001 0.021206999 -0.045047
0.031355999 0.021201 -0.044824
0.035151999 0.021218 -0.044098999
0.058715001 0.021207999 -0.013956
0.044287 0.015528 -0.026376
0.045201 0.016031001 -0.024511
0.081133001 0.021199999 -0.011136
-0.029633 0.064911999 -0.004836
-0.024505001 0.064903997 -0.0042360001
-0.0096810004 0.064920999 -0.0023449999
-0.0013220001 0.064914003 -0.001318
0.052824002 0.064900003 0.0054469998
0.063087001 0.064907998 0.0067329998
0.067075998 0.064905003 0.0072240001
0.066316999 0.079158001 0.013816
0.041969001 0.014517 -0.030471999
0.042392999 0.014732 -0.02988
0.044636 0.015934 -0.025537999
0.064416997 0.088845 0.018119
0.068980001 0.090567 0.019494001
-0.018234 0.021404 -0.023490001
-0.011395 0.021402 -0.022659
-0.0083550001 0.021400001 -0.022271
-0.0058849999 0.021400001 -0.021965999
0.042957999 0.015205 -0.028984999
0.044197001 0.015892001 -0.026435001
0.044417001 0.016023999 -0.025908001
0.045690998 0.016720001 -0.023381
0.000195 0.021400001 -0.02121
0.003427 0.021406 -0.020761
0.005138 0.02141 -0.020529
0.006846 0.021403 -0.020339999
0.0079849996 0.021399001 -0.020275
0.034959 0.021415999 -0.044328999
0.042107001 0.014967 -0.030494001
0.043116 0.015491 -0.028715
0.043988999 0.015984001 -0.026812
0.045435 0.016799999 -0.023714
0.074487001 0.021405 -0.011858
0.040856 0.091123 0.016218999
-0.030579999 0.086200997 0.0050420002
-0.025265001 0.079343997 0.002481
-0.026213 0.065103002 -0.0043330002
-0.015763 0.065102004 -0.003028
-0.0064539998 0.065096997 -0.001856
0.041808002 0.015004 -0.031027
0.044767 0.016651001 -0.024899
0.045021001 0.016791999 -0.024390001
0.055484999 0.065090001 0.0058590001
0.057004999 0.065094002 0.0060450002
0.060044002 0.065087996 0.0064329999
0.056818001 0.079351 0.012715
0.075057 0.079346001 0.014994
-0.020514 0.021594999 -0.023682
-0.0022770001 0.021585001 -0.021421
0.001332 0.021583 -0.020989999
0.043396 0.016044 -0.028124001
0.043685999 0.016218999 -0.027415
0.0072260001 0.021597 -0.02021
0.032494999 0.021586001 -0.044985
0.036293998 0.021591 -0.044013001
0.063844003 0.021586001 -0.013118
0.076387003 0.021594999 -0.011541
-0.028682999 0.079539999 0.0021629999
-0.028302999 0.079539001 0.002197
-0.026784001 0.079535998 0.0023779999
0.042424001 0.015685 -0.030246999
0.042755999 0.015882 -0.029584
-0.008161 0.079544999 0.0047030002
-0.011587 0.021772999 -0.022484999
-0.0094950004 0.021779999 -0.022236999
-0.0043660002 0.021778001 -0.021598
-0.0030370001 0.021772999 -0.021437
-0.00075499999 0.021783 -0.02114
0.00095299998 0.021772999 -0.020955
0.0022859999 0.021784 -0.020749999
0.043051001 0.016241999 -0.028929999
0.044587001 0.017192001 -0.024947001
0.0062759998 0.021783 -0.020238001
0.0074169999 0.021795001 -0.020106999
0.033826999 0.021771001 -0.044895999
0.072015002 0.021778001 -0.011999
0.079426996 0.021784 -0.011071
0.083795004 0.021777 -0.01053
0.043230001 0.016559999 -0.02844
0.044231001 0.017193999 -0.025675001
0.007797 0.079539001 0.0066960002
-0.014051 0.065297998 -0.002717
-0.013293 0.065292999 -0.002626
-0.007212 0.065296002 -0.001871
-0.003793 0.065291002 -0.001437
0.001718 0.065296002 -0.000818
0.042018998 0.016039999 -0.031319998
0.042435002 0.016276 -0.030479001
0.043573 0.016992999 -0.027354
0.049975999 0.065287001 0.005254
0.053399 0.065296002 0.0057029999
-0.0068370001 0.021962 -0.021810999
0.030022999 0.021979 -0.045740999
0.057386 0.021973001 -0.013753
0.080757 0.021974999 -0.01081
0.016915999 0.079534002 0.0078180004
0.057957999 0.079540998 0.012955
0.042282 0.016383 -0.030904001
0.042582002 0.016550999 -0.030187
0.042858001 0.016720001 -0.029456001
0.043784 0.017341999 -0.026636999
0.070497997 0.079539001 0.014509
-0.0060720001 0.065484002 -0.001622
-0.00056299998 0.065482996 -0.00095299998
-0.012914 0.022165 -0.022476999
-0.0094969999 0.022152999 -0.022053
0.00095299998 0.022151999 -0.020764001
0.0058940002 0.022158001 -0.020133
0.033064 0.022160999 -0.045372002
0.034965999 0.022155 -0.044939999
0.042436998 0.016659001 -0.030618999
0.035719998 0.022172 -0.044718001
0.060617998 0.022171 -0.013271
0.068974003 0.022156 -0.01221
0.083416 0.022159999 -0.010394
0.041997001 0.016588001 -0.031757001
0.042753 0.017055999 -0.029750001
0.002477 0.065481998 -0.00068699999
0.049787 0.065479003 0.005318
0.057006001 0.065475002 0.0062279999
0.065366 0.065476 0.007276
-0.013293 0.086189002 0.0071700001
-0.00056399999 0.022353999 -0.020852
0.0053229998 0.022343 -0.02011
0.043285999 0.017643999 -0.027867001
0.038006999 0.022344001 -0.044091001
0.066694997 0.022349 -0.012406
0.081515998 0.022352001 -0.010546
0.034396999 0.086186998 0.013106
0.036678001 0.089988001 0.015161
0.049977999 0.089989997 0.016822999
-0.025641 0.086387001 0.0057430002
-0.0047419998 0.086383 0.0083130002
-0.019753 0.065670997 -0.003268
-0.0083539998 0.022544 -0.021717001
0.042383 0.017191 -0.031016
0.042612001 0.017357999 -0.03026
0.021404 0.089006998 0.012811
0.021178 0.087433003 0.012052
0.019068001 0.086475 0.01135
0.023796 0.085078999 0.011272
0.021205001 0.085419998 0.011112
0.015703 0.086386003 0.010878
0.014918 0.086354002 0.010755
0.017273 0.085646003 0.010729
0.021015 0.083864003 0.010357
0.019226 0.084250003 0.010309
0.013807 0.085383996 0.01016
0.022574 0.083116002 0.010212
0.020353001 0.083607003 0.010153
0.020118 0.083241999 0.0099649997
0.018986 0.083479002 0.0099269999
0.017214 0.083873004 0.009881
0.043037999 0.017671 -0.028693
0.0077940002 0.022534 -0.019750999
0.020772999 0.082686 0.009788
0.018766001 0.083121002 0.0097399997
0.018873001 0.082891002 0.0096509997
0.017758001 0.083136 0.0096140001
0.031543002 0.022546001 -0.045961
0.012492 0.084062003 0.0093820002
0.036867999 0.022531999 -0.044628002
0.013959 0.083552003 0.0093280002
0.075433999 0.022535 -0.011235
0.042192001 0.017254001 -0.031642001
0.042592 0.017546 -0.030315001
0.056906998 0.024108 -0.012797
0.012056 0.083757997 0.0091840001
0.066697001 0.065669 0.007528
0.067837 0.065667003 0.007677
0.020915 0.081660002 0.0093320003
0.003427 0.086379997 0.0093369996
-0.0060709999 0.065869004 -0.0014609999
0.016532 0.082388997 0.0091150003
-0.0041720001 0.065865003 -0.001209
0.018448001 0.081785999 0.0090690004
0.041935001 0.017289 -0.032469001
0.042328 0.017539 -0.031357002
0.042768002 0.017886 -0.029565999
-0.00056499999 0.065853998 -0.00077599997
-0.016525 0.022731001 -0.022662001
-0.004745 0.022731001 -0.02118
0.042275999 0.017694 -0.031626999
0.042381 0.017773001 -0.031237001
0.042877998 0.018185999 -0.029006001
0.0028550001 0.02273 -0.020238999
0.013299 0.081672996 0.0083760004
0.007034 0.022728 -0.019733001
0.038006999 0.022724999 -0.044413999
0.066127002 0.022733999 -0.012315
0.066505998 0.02273 -0.012257
0.067266002 0.022732001 -0.012167
0.069735996 0.02273 -0.011868
0.042167999 0.017805001 -0.032081999
0.042332999 0.017927 -0.031505998
0.075055003 0.022727 -0.011196
0.058906 0.065856002 0.0066550002
0.072205 0.065849997 0.0083090002
0.029456999 0.086378999 0.012586
-0.029065 0.066046 -0.0042429999
-0.017284 0.066046998 -0.002783
-0.019943001 0.022929 -0.023009
0.042227 0.018044 -0.031973999
0.042640999 0.018409001 -0.029914999
0.042716 0.018479001 -0.029483
-0.017283 0.022929 -0.022676
-0.010444 0.022925001 -0.0218
-0.00056399999 0.022923 -0.020574
0.0076049999 0.022923 -0.019577
0.031161999 0.02293 -0.046335001
0.034203 0.022926999 -0.045772001
0.035726 0.022917001 -0.045322999
0.057383001 0.022910999 -0.013338
0.057762001 0.022906 -0.013302
0.066506997 0.022926001 -0.012185
0.041990999 0.018030999 -0.033027001
0.042461 0.018453 -0.030802
0.042644002 0.018627999 -0.029736999
-0.011011 0.066058002 -0.0020000001
-0.002654 0.066047996 -0.00093400001
0.049786001 0.066046998 0.0055780001
0.066696003 0.066045001 0.007712
0.047316998 0.086377002 0.014809
0.014447 0.079729997 0.0075960001
0.030977 0.079728998 0.0096610002
-0.015384 0.023115 -0.022343
0.042599998 0.018812001 -0.029774999
0.056912001 0.025358001 -0.012222
0.0076049999 0.023112999 -0.019475
0.035158999 0.023096999 -0.045655001
0.063464001 0.023105999 -0.012497
0.073536001 0.023111001 -0.011225
0.038199 0.079733998 0.010573
0.044279002 0.079737 0.011333
-0.022983 0.066243999 -0.0034099999
-0.021655001 0.066237003 -0.0032480001
-0.001891 0.066248 -0.00075599999
0.042002 0.018398 -0.033427
0.042553999 0.018965 -0.030030999
0.055907 0.025225 -0.012392
0.056573998 0.025446 -0.012231
0.071255997 0.066234 0.0083729997
0.076006003 0.066234998 0.0089680003
0.0038030001 0.023291999 -0.019858999
0.0045639998 0.023298001 -0.019753
0.0066530001 0.023294 -0.019494999
0.038006 0.023296 -0.044863001
0.060803 0.023290001 -0.012726
0.076954998 0.023298999 -0.0107
0.078093998 0.023293 -0.010555
0.046939 0.079735003 0.011663
0.064228997 0.086384997 0.016938999
0.040669002 0.089042999 0.015233
-0.026781 0.086576998 0.0056830002
0.042109001 0.018676 -0.033123001
0.042443998 0.019049 -0.030737
0.056844 0.025754999 -0.01206
-0.027163001 0.079920001 0.002513
-0.023364 0.079916999 0.0029859999
-0.026970999 0.066439003 -0.0038010001
-0.015574 0.066427998 -0.0023960001
-0.022034001 0.023494 -0.023023
-0.013103 0.023499999 -0.021881999
0.042068001 0.0188 -0.033631001
0.042472001 0.019305 -0.030338001
-0.010822 0.023499999 -0.021589
-0.002654 0.023495 -0.020554001
0.069164999 0.023489 -0.011612
0.076196 0.023492999 -0.010721
-0.0075940001 0.066427 -0.001402
0.042268999 0.019223999 -0.032164
0.042397 0.019424001 -0.030835999
0.055666 0.025783001 -0.012164
0.056720998 0.026154 -0.011877
-0.0053119999 0.066436999 -0.001106
0.050737999 0.066434003 0.0058869999
0.076765001 0.066422001 0.0091460003
-0.0089229997 0.079921 0.0047809999
0.031166 0.023676001 -0.046879999
0.062323 0.023670999 -0.012363
0.042093001 0.019158 -0.034024999
0.042132001 0.019224999 -0.033583
0.042296998 0.019483 -0.031785
0.056761 0.026388001 -0.011754
0.065934002 0.023673 -0.011912
0.070495002 0.023676001 -0.011368
-0.001131 0.079926997 0.0057700002
0.0057089999 0.079925001 0.0066149998
-0.0026529999 0.066620998 -0.000688
0.00076800003 0.066625997 -0.00026900001
0.042215999 0.019548001 -0.032760002
0.068406001 0.066615 0.0082010003
-0.0081630005 0.023878001 -0.021072
-0.000186 0.023866 -0.020073
0.0057060001 0.023874 -0.019322
0.034579001 0.023886001 -0.046478
0.066693 0.023861 -0.011729
0.072396003 0.023871001 -0.011036
0.077716999 0.023874 -0.010359
0.083416 0.023871001 -0.0096349996
0.074106 0.066615 0.0089069996
0.019385001 0.079911001 0.0083039999
0.020905999 0.079916 0.0084950002
0.070496999 0.079917997 0.01469
-0.0070239999 0.086563997 0.0081209997
-0.0041740001 0.086563997 0.0084629999
-0.001893 0.086567 0.0087550003
-0.019943001 0.066812001 -0.0027679999
0.002478 0.066814996 4e-06
0.056437999 0.066812001 0.0067960001
-0.0066419998 0.024071001 -0.020795001
0.042236999 0.020018 -0.032184999
0.042273998 0.020141 -0.031268999
0.00019399999 0.024058999 -0.019936999
0.003235 0.024061 -0.019541999
0.032497 0.024049001 -0.046948001
0.033824001 0.024062 -0.046753
0.034581002 0.024071001 -0.046622001
0.035725001 0.024057999 -0.046241999
0.042185999 0.019919001 -0.034630999
0.042211998 0.020016 -0.033946
0.036865 0.024058999 -0.045816001
0.080565996 0.02406 -0.0099090002
0.063468002 0.066811003 0.0076720002
0.076764002 0.066798002 0.009327
-0.026404001 0.080107003 0.002696
0.011978 0.080112003 0.0074689998
0.041237999 0.080112003 0.011138
0.04222 0.020284999 -0.033271
-0.00056199997 0.086570002 0.0089199999
0.00095700001 0.086570002 0.009114
0.001718 0.067005001 1.7e-05
0.002477 0.067001998 9.1000002e-05
-0.020515 0.024250001 -0.022493999
-0.0041749999 0.024250999 -0.020385999
0.0064670001 0.024258001 -0.019030999
0.034961 0.024257001 -0.046642002
0.042226002 0.020259 -0.035293002
0.042264 0.020378999 -0.034356002
0.042196002 0.020533999 -0.032857001
0.042179 0.020639 -0.031858999
0.064985 0.024249 -0.011749
0.075055003 0.024249 -0.01053
-0.021083999 0.080296002 0.003451
-0.017663 0.080301002 0.003879
0.023187 0.080297999 0.0089530004
0.048078999 0.080302998 0.012078
-0.019562 0.067197002 -0.00254
0.042277999 0.020522 -0.034937002
0.002477 0.067189999 0.000178
-0.0049330001 0.024447 -0.020401999
-0.0041740001 0.024443001 -0.020315999
-0.001892 0.024451001 -0.020006999
-0.001133 0.024448 -0.019915
0.034770001 0.024451001 -0.046797
0.042206999 0.020865999 -0.033498999
0.057767 0.024445999 -0.012533
0.059285998 0.024442 -0.012343
0.068972997 0.024429999 -0.011175
0.071062997 0.024429999 -0.010921
0.073532999 0.024431 -0.010625
0.042303 0.020801 -0.036065001
0.042316001 0.020886 -0.035347998
0.042133 0.021122999 -0.032759
0.075434998 0.024436999 -0.010403
0.057959002 0.067198001 0.0071640001
0.072586998 0.067189001 0.008986
0.057957999 0.080300003 0.013317
0.059098002 0.080302 0.013458
0.033638999 0.086572997 0.013195
0.035537001 0.086566001 0.013432
0.042277001 0.021183999 -0.034435
-0.024122 0.067386001 -0.0030100001
-0.020136001 0.024627 -0.022278
-0.015576 0.024629001 -0.0217
-0.005504 0.024633 -0.020400999
-0.0034139999 0.024635 -0.020127
0.001716 0.024633 -0.019469
0.0051350002 0.024629001 -0.019021001
0.031544998 0.024628 -0.047463
0.032494001 0.024630999 -0.047320999
0.033822998 0.024635 -0.047116999
0.036669001 0.024642 -0.046326999
0.042358 0.021166001 -0.036488
0.042378999 0.021196 -0.036253002
0.042343002 0.021302 -0.035264
0.042126 0.021477001 -0.033126999
0.058148 0.024638001 -0.012393
0.067075998 0.024630999 -0.011291
0.075813003 0.02462 -0.010258
0.076572999 0.024621001 -0.010161
-0.013484 0.067377999 -0.0016890001
0.042146001 0.021647001 -0.033468999
0.002476 0.067377999 0.000268
0.051497001 0.067377001 0.0064249998
-0.017856 0.024816999 -0.021895999
0.036290001 0.024829 -0.046576001
0.038006999 0.024814 -0.04597
0.062327001 0.024827 -0.011773
0.067075998 0.02482 -0.011184
0.074293002 0.024809999 -0.010351
0.053778 0.067383997 0.0067179999
0.061189 0.067387 0.0076520001
0.061569002 0.086572997 0.016705999
0.062710002 0.086576 0.01684
-0.015192 0.080491997 0.0042719999
-0.0047470001 0.025002999 -0.020149
0.001718 0.025022 -0.019299001
0.042383 0.021862 -0.035760999
0.003238 0.02502 -0.019092999
0.03497 0.025 -0.047052
0.058145002 0.025008 -0.01221
0.060998 0.02502 -0.011838
0.064607002 0.025016 -0.011405
0.042435002 0.021864999 -0.037551001
0.065557003 0.025014 -0.01129
0.067264996 0.025009001 -0.01107
0.078093 0.025001001 -0.0097949998
0.042445 0.022209 -0.036456
0.042257 0.022329001 -0.034814999
0.00076700002 0.080490001 0.0062680002
0.028697001 0.080486998 0.0097340001
0.036297999 0.080490999 0.010678
0.065938003 0.067570999 0.0083309999
0.067268997 0.067575 0.0085030003
-0.021654001 0.025204999 -0.022190001
-0.019755 0.0252 -0.02196
-0.013105 0.025202001 -0.021125
-0.0093069999 0.025195001 -0.020625999
0.0043739998 0.025198 -0.018859999
0.005138 0.025209 -0.018758001
0.066505998 0.0252 -0.011072
0.081324004 0.025195001 -0.0093029998
0.076387003 0.067567997 0.0096479999
0.050547998 0.080491997 0.012474
0.068218 0.080491997 0.014681
-0.011018 0.025381001 -0.02077
0.042495999 0.022547999 -0.037119001
0.042334002 0.022671999 -0.035494
-0.0062640002 0.025393 -0.020155
-0.0047459998 0.025387 -0.019973001
0.0041860002 0.025394 -0.018817
0.006846 0.025394 -0.018449999
0.031167001 0.02538 -0.04795
0.034774002 0.025389999 -0.047339998
0.063087001 0.025394 -0.011418
0.079613 0.025379 -0.0094189998
0.048078999 0.089045003 0.016151
-0.026404001 0.067758001 -0.003118
-0.017472001 0.067763999 -0.002012
-0.019374 0.025583999 -0.02173
-0.015576 0.025575001 -0.021263
-0.0098759998 0.025579 -0.020527
-0.002654 0.025583001 -0.019613
0.034201998 0.025587 -0.047603
0.064985998 0.025583001 -0.011096
0.066887997 0.025587 -0.010846
0.069737002 0.025584999 -0.01051
-0.015952 0.067764997 -0.001817
0.056816999 0.067759 0.007282
-0.016711 0.086765997 0.0070250002
0.042546999 0.022985 -0.038548999
0.04245 0.023189001 -0.036529999
-0.003606 0.025767 -0.019659
0.034389 0.025783001 -0.047656
0.057383999 0.025766 -0.011962
0.073537 0.025776001 -0.0099520003
0.080944002 0.025761999 -0.0090610003
-0.001892 0.086759999 0.008839
-0.011773 0.067951001 -0.0012150001
-0.0094959997 0.067942001 -0.00093400001
-0.0055049998 0.067946002 -0.000436
0.032304 0.025962001 -0.048124999
0.042562 0.023242 -0.038164001
0.0361 0.025969001 -0.047292002
0.060803 0.025948999 -0.01145
0.070497997 0.025967 -0.010241
0.064988002 0.067951001 0.0083849998
0.042582002 0.023322999 -0.039213002
0.065936998 0.067947999 0.0085000005
-0.027734 0.080675997 0.002808
0.020528 0.080683 0.0088160001
0.053206999 0.080678001 0.012891
-0.016333001 0.026156999 -0.021074999
0.073158003 0.026157999 -0.0098209996
0.075057 0.026154 -0.0095920004
0.078856997 0.026154 -0.0091209998
0.057009 0.080683 0.013368
0.062137999 0.080679998 0.014011
0.042631 0.023717999 -0.039390001
0.042528 0.023923 -0.037372001
-0.0070259999 0.026338 -0.019811001
-0.00094699999 0.026333001 -0.019058
0.0066550002 0.026339 -0.018076001
0.032304998 0.02634 -0.048339002
0.058146 0.026341001 -0.011602
0.063083999 0.026332 -0.010992
0.064603001 0.02633 -0.010807
0.042557999 0.024092 -0.037703998
0.063657999 0.080678999 0.014206
0.069167003 0.080678001 0.014886
0.072777003 0.080674 0.015341
-0.001324 0.086755998 0.0089109996
-0.028871 0.068148002 -0.0032289999
-0.021462999 0.068141997 -0.00233
-0.019185999 0.026528999 -0.021266
0.0019039999 0.026527001 -0.018598
0.033066999 0.026520001 -0.048333999
0.042622 0.024218 -0.038571
0.034017999 0.026520001 -0.048172001
0.035351001 0.026516 -0.047830001
0.066884004 0.026524 -0.010433
0.077336997 0.026536001 -0.0091220001
-0.018235 0.068134002 -0.001936
-0.012153 0.068141997 -0.001167
0.035137001 0.064487003 -0.001202
0.001907 0.068140998 0.00057500001
0.034219999 0.064796999 -0.001535
-0.020894 0.026726 -0.021384001
-0.013295 0.02672 -0.020438001
-0.0034159999 0.026718 -0.019195
-0.001516 0.026718 -0.018955
0.031923998 0.026722999 -0.04862
0.033635002 0.026718 -0.048388001
0.036486998 0.026714999 -0.047614999
0.057578001 0.026729999 -0.011506
0.059287 0.026726 -0.011296
0.079239003 0.026730999 -0.0087949997
0.079997003 0.026725 -0.0087050004
0.082657002 0.026725 -0.0083879996
0.054536 0.068135999 0.0071729999
0.032887999 0.065035999 -0.002235
0.045795999 0.086753003 0.014797
-0.020133 0.080870003 0.0038419999
-0.027544999 0.068323001 -0.0029879999
-0.004553 0.068331003 -0.000136
0.036451999 0.063271001 -0.001681
0.035613 0.063731 -0.001896
0.034935001 0.064090997 -0.0020630001
-0.001895 0.068323001 0.00019999999
0.000195 0.026908999 -0.018650999
0.034051001 0.064423002 -0.002416
0.031709999 0.065266997 -0.002717
0.033064999 0.026907001 -0.048571002
0.060045999 0.026912 -0.01111
0.065743998 0.026904 -0.010397
0.072015002 0.026906 -0.0096230004
0.037548002 0.062382001 -0.001665
0.033498999 0.064574003 -0.0026819999
0.001526 0.068328001 0.00062300003
0.048836999 0.068331003 0.0065199998
0.042737 0.025094001 -0.039995998
0.042727999 0.025123 -0.039756
0.055679001 0.068334997 0.007406
0.069549002 0.068333998 0.009141
0.036405001 0.062867001 -0.002324
0.074299 0.068333998 0.0097289998
0.037176002 0.062259998 -0.002232
0.035420001 0.063340999 -0.0027630001
0.034418002 0.063897997 -0.003024
-0.0034109999 0.080877997 0.0059250002
0.000573 0.027092 -0.018513
0.004375 0.027099 -0.018036
0.031923 0.027106 -0.048831001
0.032411002 0.064687997 -0.0035580001
0.060045999 0.027101999 -0.011039
0.062706999 0.027105 -0.010683
0.063847996 0.027108001 -0.010529
0.069922999 0.027091 -0.0097949998
0.076954 0.027093001 -0.0089210002
0.036837999 0.062254999 -0.0026519999
0.033369999 0.064231001 -0.0035910001
0.031612001 0.064874999 -0.003818
0.077715002 0.027096 -0.0088210003
0.042684998 0.025351999 -0.041046001
0.014258 0.080871001 0.0081150001
0.051688001 0.080868997 0.012789
0.038468 0.060991 -0.0022120001
0.036515001 0.062355001 -0.0029150001
0.035744 0.062872998 -0.003174
0.034598999 0.063538 -0.0034940001
0.057387002 0.080867998 0.013505
-0.020132 0.027301 -0.021029999
-0.018234 0.027294001 -0.020798
0.040233999 0.059602 -0.001701
0.033921 0.063803002 -0.003828
0.032857999 0.064308003 -0.0040489999
0.031030999 0.064906001 -0.0042320001
0.005134 0.027285 -0.017845999
0.031923 0.027295999 -0.048916999
0.032683 0.027295001 -0.048818
0.033442002 0.027299 -0.048719998
0.059094999 0.027287001 -0.011078
0.060807001 0.027294001 -0.010856
0.063847996 0.027299 -0.01045
0.039453 0.060013 -0.0021200001
0.037686002 0.061308999 -0.0027979999
0.034782 0.063270003 -0.003797
0.032497998 0.064378999 -0.0042869998
0.032109 0.064521998 -0.004338
0.03084 0.064889997 -0.0044280002
0.064986996 0.027293 -0.01031
0.065367997 0.027298 -0.010267
0.066886999 0.027295001 -0.010083
0.042720001 0.025745001 -0.041219998
0.074483 0.027280999 -0.0091420002
0.035270002 0.062889002 -0.003826
0.034784 0.063178003 -0.0039670002
0.058338001 0.080870003 0.013633
0.055677999 0.086759999 0.016042
-0.026022 0.068527997 -0.0027060001
0.001907 0.068521999 0.00075499999
0.054157 0.068520002 0.0072849998
0.042773999 0.026006 -0.040858001
0.041159999 0.058488999 -0.001744
0.037064999 0.061530001 -0.003338
0.035739001 0.062493 -0.0038429999
0.033445001 0.063831002 -0.0044800001
0.031156 0.064699002 -0.0048130001
0.042792998 0.026063001 -0.040382002
0.062707998 0.068521 0.0083659999
-0.020515 0.027481001 -0.021007
-0.013865 0.027481001 -0.020157
0.040514998 0.058784001 -0.0021009999
0.038642999 0.060217999 -0.0028589999
0.037925001 0.060770001 -0.003152
0.030747 0.064740002 -0.00502
0.034205001 0.027481001 -0.048695002
0.034768999 0.027492 -0.048556998
0.035911001 0.027486 -0.048225999
0.068596996 0.027484 -0.0097869998
0.039613001 0.059324 -0.002595
0.037188999 0.061218001 -0.003602
0.031218 0.064571001 -0.0051910002
0.042806 0.026262 -0.040475
0.071823999 0.027473999 -0.0093790004
0.075433001 0.02747 -0.0089309998
0.082657002 0.027482999 -0.0080220001
0.036467999 0.061678 -0.004061
0.034981001 0.062739998 -0.004615
0.030354001 0.064705998 -0.0054060002
0.059287999 0.086759999 0.016501
0.072208002 0.086758003 0.018127
-0.023363 0.081059001 0.0035300001
0.061563 0.027660999 -0.010592
0.062895 0.027666001 -0.010415
-0.018804001 0.081056997 0.0040899999
0.034520999 0.062958002 -0.0049399999
0.032825001 0.063867003 -0.005357
0.031686001 0.064308003 -0.0055280002
0.042817 0.026456 -0.040550999
-0.017092001 0.068714999 -0.001514
-0.0089220004 0.068714 -0.00050000002
0.041202001 0.057615001 -0.0023050001
0.037168998 0.060924001 -0.0040930002
0.033891998 0.063267 -0.0053070001
0.030221 0.064631999 -0.0058070002
-0.022036999 0.027853999 -0.021019001
0.042821001 0.026590999 -0.041104
0.042819999 0.026620001 -0.040863
-0.020708 0.027851 -0.020862
-0.015383 0.027866 -0.020176001
-0.012343 0.027868001 -0.019789999
-0.0049339999 0.027864 -0.018846
0.040729001 0.057822 -0.002624
0.039198 0.059076998 -0.003301
0.038111001 0.060008999 -0.0038099999
0.03545 0.062165 -0.0049669999
0.032329999 0.06397 -0.0058280001
0.030933 0.064436004 -0.0059830002
0.0045679999 0.027871 -0.017643001
0.057574 0.027853999 -0.011005
0.059473 0.027852001 -0.010769
0.042801999 0.026719 -0.041630998
0.040816002 0.057574999 -0.002695
0.039983001 0.058261 -0.0030670001
0.036173999 0.061524 -0.0048460001
0.033613998 0.063309997 -0.0057669999
0.031385999 0.064253002 -0.006141
0.042824998 0.026784999 -0.041177001
0.067645997 0.027861999 -0.0097430004
0.035036001 0.062325999 -0.0054890001
0.081515998 0.027860999 -0.0080019999
-0.018997001 0.028045001 -0.020558
