# .PCD v0.7 - Point Cloud Data file format
VERSION 0.7
FIELDS x y z rgba
SIZE 4 4 4 4
TYPE F F F U
COUNT 1 1 1 1
WIDTH 1098
HEIGHT 1
VIEWPOINT 0 0 0 1 0 0 0
POINTS 1098
DATA ascii
0.092402264 -0.025428668 0.62999803 9798769
0.093303427 -0.025962293 0.62940824 9732469
0.094695374 -0.026418358 0.62969452 9666934
0.096090168 -0.026876181 0.62997878 9732727
0.096994191 -0.027411446 0.62938726 9798773
0.097898215 -0.027946755 0.62879562 10192500
0.098802239 -0.028482065 0.62820405 10650737
0.070021227 -0.031190008 0.62980384 9995895
0.10020418 -0.02894409 0.62848371 9798509
0.10110964 -0.029480189 0.62789124 9010027
0.074561 -0.028844386 0.63055223 10192759
0.075917035 -0.029296353 0.63086134 10061432
0.076806784 -0.029823229 0.63027912 9995641
0.078167096 -0.030277729 0.63058543 9995638
0.079530269 -0.030733943 0.63088989 9930610
0.080422863 -0.031262502 0.63030577 9864306
0.081790373 -0.031721249 0.63060749 9732978
0.082684383 -0.032250613 0.63002247 9666416
0.084533855 -0.032643795 0.6312052 9600111
0.085430741 -0.033174872 0.63061833 9600367
0.087769389 -0.033506751 0.6326775 9535088
0.088670567 -0.034040332 0.63208777 9535601
0.090055153 -0.034509242 0.63237822 9667699
0.090957746 -0.035043702 0.63178754 9864563
0.091860339 -0.035578161 0.63119692 9799284
0.092762932 -0.036112621 0.63060629 9799022
0.09366554 -0.036647037 0.63001567 9667944
0.094568133 -0.037181497 0.62942505 9601896
0.095470726 -0.037715971 0.62883437 8679528
0.09637332 -0.038250431 0.62824368 7827043
0.10201509 -0.030016363 0.62729871 8809833
0.071367919 -0.031642884 0.63011885 9996153
0.072253376 -0.032167196 0.62953943 9930364
0.074069872 -0.032553703 0.63074338 9864825
0.075425118 -0.03301166 0.63105285 9798774
0.076314867 -0.033538491 0.63047057 9798260
0.077674404 -0.033998966 0.63077724 9667186
0.079036787 -0.03446117 0.631082 9535345
0.079929367 -0.0349897 0.63049787 9469808
0.081296101 -0.035454378 0.63079995 9338735
0.082190111 -0.035983771 0.63021487 9206894
0.084038004 -0.036388919 0.6313982 9075308
0.085413247 -0.036858678 0.63169461 9009514
0.086311564 -0.03739059 0.63110679 8943722
0.088172331 -0.037803322 0.63228178 8943979
0.089073494 -0.038336933 0.63169205 9009769
0.090458736 -0.038812637 0.63198185 9075304
0.091361329 -0.039347112 0.63139123 9141090
0.092263922 -0.039881561 0.63080055 8944733
0.093166515 -0.040415991 0.63020992 8813919
0.094069108 -0.040950451 0.6296193 8416353
0.09678106 -0.038842812 0.62678039 7495775
0.097682223 -0.039376419 0.62619072 7233111
0.099081114 -0.039853755 0.62647182 6904400
0.099484548 -0.040443648 0.62501127 6575178
0.10038571 -0.040977214 0.62442166 6180931
0.10028285 -0.041618284 0.62209582 5851712
0.10067773 -0.042203072 0.62064093 5522750
0.10157461 -0.042734142 0.62005401 5194039
0.10247149 -0.043265205 0.61946714 4864560
0.053391121 -0.048377577 0.63269585 10524031
0.054706611 -0.048852723 0.63303 10261886
0.055583499 -0.049371947 0.63245624 9995133
0.056460395 -0.049891178 0.63188237 9797496
0.057781607 -0.050369713 0.63221276 9469043
0.058659919 -0.050889786 0.63163799 9141360
0.05953823 -0.051409859 0.63106328 8745070
0.060416542 -0.051929925 0.63048851 8417125
0.060844824 -0.052487332 0.6290133 7957341
0.094971702 -0.041484911 0.62902862 8088157
0.095874295 -0.042019371 0.628438 7694681
0.096776903 -0.042553831 0.62784737 7366486
0.097183987 -0.043139402 0.62638468 7037267
0.098085165 -0.043673027 0.62579495 6642767
0.098986328 -0.044206593 0.62520528 6313804
0.098887891 -0.044837397 0.62287706 5985091
0.099284992 -0.045417082 0.62142086 5722170
0.10018186 -0.045948144 0.62083399 5393719
0.10107875 -0.04647921 0.62024707 5129781
0.10292055 -0.030552521 0.62670618 8613478
0.10432965 -0.031018764 0.6269812 8351330
0.10523652 -0.031555727 0.62638777 8154718
0.1061434 -0.032092735 0.62579435 8154969
0.10755819 -0.03256236 0.62606555 8219993
0.10449117 -0.021202583 0.62838316 9404534
0.10640852 -0.021571655 0.62952363 9273463
0.10731967 -0.022111196 0.62892729 9338745
0.046029292 -0.041317154 0.6328609 10061689
0.04776068 -0.041721869 0.63411826 10127225
0.048633292 -0.042238589 0.63354719 10061689
0.049505897 -0.042755272 0.63297617 9996410
0.050813653 -0.043219384 0.63331568 10061692
0.051687673 -0.043736909 0.63274372 10061693
0.052561708 -0.044254441 0.63217175 10127230
0.053435735 -0.044771999 0.63159984 10127485
0.05519142 -0.045191105 0.63284129 10127997
0.056510568 -0.04566199 0.63317323 10128508
0.057388879 -0.046182059 0.63259846 10061948
0.058267191 -0.046702128 0.63202369 10060919
0.059592076 -0.047176387 0.63235199 9731186
0.06047181 -0.047697309 0.63177627 9335916
0.061351553 -0.048218232 0.63120061 9007975
0.06223131 -0.048739154 0.63062489 8614500
0.063111044 -0.049260084 0.63004923 8416865
0.063990794 -0.049781006 0.62947351 8154204
0.064870536 -0.050301913 0.62889785 7825752
0.065750286 -0.050822843 0.62832218 7497302
0.066630028 -0.051343758 0.62774646 7035220
0.067509763 -0.051864687 0.6271708 6640970
0.068389505 -0.05238561 0.62659508 6245953
0.069269255 -0.052906532 0.62601936 5852478
0.070612684 -0.053391766 0.62633544 5521979
0.071493849 -0.053913523 0.62575889 5258041
0.072375029 -0.054435302 0.62518221 4600631
0.079807743 -0.054493081 0.63705099 3944998
0.080708906 -0.055026684 0.63646132 4076309
0.082080901 -0.055528853 0.63675869 4207651
0.082983494 -0.056063313 0.63616806 4273713
0.083412409 -0.056627531 0.63469219 4405299
0.084313586 -0.057161096 0.63410246 4536630
0.069965556 -0.058592889 0.60524553 4733498
0.070343062 -0.059126657 0.60380334 4996414
0.070717677 -0.059658717 0.60236293 5324870
0.071570292 -0.060163591 0.60180497 5193806
0.072905168 -0.060643751 0.60212672 5128515
0.073275506 -0.061173249 0.60068923 5656633
0.074128121 -0.061678145 0.60013121 6250591
0.074980721 -0.062182982 0.59957331 7301765
0.075833336 -0.062687859 0.59901536 8418436
0.076685935 -0.06319268 0.59845746 9076611
0.077538535 -0.063697562 0.5978995 9800576
0.078883424 -0.064183623 0.59821469 10062461
0.079737455 -0.064689353 0.59765577 10390140
0.0805915 -0.065195024 0.59709698 10390140
0.08144553 -0.065700725 0.59653807 10324859
0.082299575 -0.066206455 0.59597921 10259322
0.083652988 -0.066697612 0.59628874 10194040
0.084508464 -0.067204148 0.59572899 10062198
0.085866168 -0.067697868 0.5960356 9930869
0.087226719 -0.068193242 0.59634048 9799285
0.08859016 -0.06869033 0.59664351 9733233
0.089956433 -0.069189101 0.59694463 9601901
0.090817615 -0.069699034 0.59638107 9405294
0.091678783 -0.070208952 0.59581751 8944751
0.12259889 -0.070834026 0.64370972 8682100
0.12405513 -0.071386069 0.64395189 8879995
0.12499915 -0.071945056 0.64333421 9076610
0.12542664 -0.072508439 0.64185923 9339005
0.12636922 -0.073066562 0.64124244 9404792
0.12783118 -0.073622003 0.64148092 9470584
0.12877519 -0.074180961 0.64086318 9470585
0.13024147 -0.074738905 0.64109898 9405305
0.13171056 -0.075298592 0.64133275 9470842
0.13265742 -0.075859249 0.64071316 9470840
0.13465734 -0.076423004 0.64179474 9536375
0.136135 -0.076987728 0.64202297 9536375
0.13761555 -0.077554166 0.64224941 9536119
0.13856813 -0.078118205 0.64162606 9536119
0.14058517 -0.078692064 0.6426965 9536375
0.14207426 -0.079263598 0.64291716 9601910
0.14356621 -0.079836756 0.64313608 9602166
0.10846651 -0.033100158 0.62547123 8153434
0.11039636 -0.033506677 0.62660247 8088923
0.11130752 -0.034046188 0.62600619 8089948
0.11273234 -0.034521729 0.62627095 8155484
0.11364493 -0.035062119 0.62567377 8221021
0.11507401 -0.035540193 0.62593561 8351837
0.11702386 -0.035958543 0.6270538 8417118
0.11949877 -0.036319673 0.62902546 8483170
0.12146148 -0.036745608 0.63013524 8549478
0.1229077 -0.037233829 0.63038594 8615271
0.12488042 -0.03766568 0.63148922 8681064
0.12685883 -0.038100928 0.63258868 8747371
0.12778999 -0.038652286 0.63197935 8878445
0.10823084 -0.022650722 0.62833107 9469819
0.10965084 -0.023108382 0.62859952 9536125
0.11107366 -0.02356777 0.62886596 9601912
0.1303049 -0.039037094 0.6339249 9075822
0.13124035 -0.039590988 0.63331276 9207408
0.11198768 -0.024108976 0.62826782 9865075
0.051235251 -0.044780966 0.6329971 10324861
0.052109286 -0.045298494 0.63242513 10324092
0.052983314 -0.045816023 0.63185316 10325116
0.054737516 -0.046238575 0.63309544 10260860
0.056055918 -0.046711147 0.63342786 10194043
0.056934245 -0.047231216 0.63285309 9996155
0.057812564 -0.047751304 0.63227826 9863285
0.058690868 -0.048271377 0.63170356 9467248
0.059569187 -0.04879145 0.63112879 9139565
0.10021348 -0.043274399 0.62090093 5456702
0.10111037 -0.043805465 0.620314 5127993
0.10200725 -0.044336531 0.61972713 4799541
0.10239716 -0.044916224 0.61827552 4536626
0.10227577 -0.045542046 0.61596197 4208431
0.10010935 -0.046352152 0.61020112 3946283
0.099459603 -0.04701389 0.60703695 4011560
0.099826619 -0.04758006 0.60560024 4142128
0.099162593 -0.048233312 0.60244554 4404536
0.10055217 -0.04870731 0.60273266 4667456
0.10142763 -0.049225677 0.6021598 4536649
0.10230309 -0.049744103 0.60158682 4474447
0.10317855 -0.05026247 0.60101402 6117718
0.104054 -0.050780851 0.6004411 7756634
0.10492946 -0.051299218 0.59986824 8155231
0.12886617 -0.050124567 0.63684791 8615269
0.13033004 -0.050642524 0.63708651 8681579
0.1323237 -0.051125374 0.63817477 8813421
0.060896181 -0.049269106 0.6314556 8812138
0.06177593 -0.049790028 0.63087988 8548708
0.06220413 -0.050351668 0.62940454 8285791
0.063082449 -0.050871734 0.62882984 8022108
0.063960768 -0.051391806 0.62825507 7561306
0.064839087 -0.051911879 0.6276803 7166549
0.065717399 -0.052431997 0.62710553 6706512
0.10073669 -0.022463877 0.62835646 9601910
0.10164213 -0.023000035 0.62776393 9601654
0.10304923 -0.023454372 0.62804061 9536118
0.10445915 -0.023910418 0.62831539 9470328
0.10536747 -0.024448216 0.62772101 9535098
0.10728757 -0.02482751 0.62885934 9602948
0.10819873 -0.025367022 0.62826312 9800591
0.10961868 -0.025828987 0.62853134 10000005
0.050114714 -0.062968686 0.63667208 10455168
0.050993025 -0.063488752 0.63609731 10324350
0.051871344 -0.064008832 0.63552254 10193021
0.052749664 -0.064528897 0.63494784 10127481
0.053627968 -0.065048963 0.63437307 10061942
0.054506294 -0.065569058 0.6337983 10061944
0.055384606 -0.066089123 0.63322353 10062202
0.056262918 -0.066609204 0.63264877 10062457
0.057584539 -0.067115813 0.63297808 10127993
0.058464289 -0.067636773 0.63240236 10193783
0.059344023 -0.068157658 0.6318267 9996406
0.060223766 -0.068678588 0.63125098 9799285
0.061103515 -0.069199502 0.63067532 9536372
0.061532818 -0.069729671 0.62920028 9338735
0.062411129 -0.070249751 0.62862551 9010283
0.062836163 -0.070777372 0.62715328 8747625
0.063713051 -0.071296588 0.62657946 8417640
0.063677669 -0.071827516 0.62421453 8088674
0.063178979 -0.072360024 0.62095863 7824477
0.063589744 -0.07287921 0.61949575 7562589
0.064458065 -0.073393375 0.6189276 7496797
0.064864531 -0.073909998 0.61746746 7431004
0.065731421 -0.074423283 0.61690027 7495515
0.078680739 -0.074916527 0.63947225 7560286
0.079584762 -0.075451836 0.63888067 7757665
0.080956355 -0.075988069 0.63917714 7955301
0.082330808 -0.076525941 0.63947195 7956329
0.083708107 -0.077065557 0.63976467 8022891
0.084616408 -0.07760337 0.63917035 8485230
0.086944565 -0.078154117 0.64122903 8947575
0.088331848 -0.078699663 0.64151525 9079424
0.089722008 -0.079246879 0.64179957 9277053
0.091115013 -0.079795793 0.6420821 9472890
0.092989877 -0.080354065 0.64324337 9668985
0.093909606 -0.080898628 0.6426416 9734009
0.076377586 -0.028233558 0.63060343 10061691
0.077737227 -0.028685525 0.63091028 9995645
0.078628376 -0.029213235 0.63032711 9995898
0.079992309 -0.02966775 0.63063115 9930359
0.080884889 -0.030196249 0.63004708 9864310
0.082253113 -0.030653298 0.63034832 9798773
0.083624199 -0.03111203 0.63064772 9798001
0.084998116 -0.031572491 0.63094521 9732206
0.085894987 -0.032103553 0.63035828 9666415
0.088235855 -0.032430291 0.63241631 9666673
0.089137018 -0.032963902 0.63182652 9666932
0.090522364 -0.033431098 0.63211662 9798520
0.091424957 -0.033965528 0.63152593 9930103
0.09232755 -0.034499988 0.63093531 9864567
0.093230143 -0.035034433 0.63034463 9799024
0.094132736 -0.035568908 0.62975401 9536618
0.095035329 -0.036103353 0.62916338 9339497
0.095937923 -0.036637783 0.6285727 8679784
0.096840516 -0.037172258 0.62798208 8024164
0.097247526 -0.037766337 0.6265192 7693409
0.098645702 -0.038241163 0.62680078 7363929
0.099548295 -0.038775578 0.62621021 6969681
0.1004509 -0.039310053 0.62561953 6641483
0.1013535 -0.039844509 0.62502885 6312261
0.10175334 -0.040434401 0.62357062 5983553
0.10164614 -0.041077141 0.62124759 5720382
0.10254444 -0.041609053 0.62065971 5456949
0.10344277 -0.042140957 0.62007195 5127980
0.10383262 -0.042724904 0.61862028 4864813
0.10370974 -0.043358378 0.61630756 4666927
0.10358112 -0.04398844 0.61399847 4470063
0.10447228 -0.04451615 0.6134153 4338735
0.1012501 -0.045433063 0.60595125 4209202
0.10212983 -0.045953985 0.60537559 4600630
0.10300958 -0.046474915 0.60479987 4994351
0.10388932 -0.046995837 0.60422421 5126441
0.1250446 -0.045751099 0.63704729 5258825
0.12598003 -0.046305001 0.63643515 6709354
0.12691547 -0.046858903 0.63582301 8219235
0.12785091 -0.047412802 0.63521087 8549981
0.12931193 -0.04792482 0.63545138 8944482
0.1302488 -0.048479576 0.63483828 8944232
0.13171412 -0.048994098 0.63507599 9009771
0.13424207 -0.049431656 0.63701147 9010030
0.13571598 -0.049951281 0.63724357 9010030
0.13719274 -0.050472561 0.63747388 9076334
0.13867234 -0.050995577 0.63770217 9207146
0.14069039 -0.051484305 0.63877475 9272678
0.14164011 -0.052046683 0.63815325 9338220
0.095311195 -0.081452638 0.64291847 9734007
0.096715614 -0.082008287 0.64319348 9799798
0.09812291 -0.082565635 0.64346665 9930871
0.099046916 -0.083112791 0.64286196 9996152
0.099970937 -0.083659932 0.64225733 10061689
0.10138394 -0.084220648 0.64252675 10061434
0.10230939 -0.084768653 0.6419211 10061179
0.10421853 -0.08534722 0.64306003 10061436
0.10662666 -0.085945323 0.64506644 10061947
0.10755925 -0.08649753 0.64445615 10061947
0.10948406 -0.087085411 0.6455847 10061691
0.11041951 -0.087639317 0.64497256 10127739
0.11185394 -0.088212714 0.64522797 10128255
0.11104144 -0.026292592 0.62879777 9997691
0.11195548 -0.026833847 0.62819964 10063475
0.069020852 -0.069299132 0.60668224 9996668
0.069877744 -0.069806561 0.60612142 10061948
0.070734635 -0.070313931 0.60556072 9930621
0.07111308 -0.070828944 0.60411859 9864826
0.071968541 -0.071335524 0.60355872 9733495
0.072824016 -0.071842059 0.60299891 9602165
0.073679477 -0.072348595 0.60243911 9601652
0.075019091 -0.072850898 0.60275704 9601395
0.075875998 -0.073358282 0.60219628 9535602
0.076732889 -0.073865652 0.60163558 9469800
0.07758978 -0.074373096 0.60107481 9207645
0.12733124 -0.012481917 0.62719697 9733750
0.078446671 -0.074880466 0.60051411 9008998
0.079794854 -0.075387821 0.60082644 8417135
0.080653176 -0.075896055 0.60026473 7830383
0.10572548 -0.076485768 0.64239132 8485744
0.10764496 -0.077040464 0.64352435 9142896
0.048699826 -0.037676439 0.63128328 9864557
0.050440006 -0.038069203 0.63253546 9667683
0.051312611 -0.038585886 0.63196445 9536621
0.052623302 -0.039043188 0.63230222 9667960
0.053497344 -0.039560724 0.63173032 9864825
0.054812305 -0.040020537 0.63206524 9864571
0.055687763 -0.040538911 0.63149244 9930107
0.057007007 -0.041001286 0.63182455 9864316
0.058329098 -0.041465309 0.63215482 9733246
0.059207432 -0.041985426 0.63158005 10061952
0.060533829 -0.042451974 0.63190764 10325641
0.061413571 -0.042972896 0.63133192 10654866
0.062293313 -0.043493818 0.63075626 10916483
0.064077772 -0.043912832 0.63197941 10193013
0.064960375 -0.044435445 0.6314019 9470064
0.065842971 -0.044958059 0.63082433 9205611
0.066725574 -0.045480642 0.63024676 9009255
0.06760817 -0.046003256 0.62966925 8746339
0.068950266 -0.046479169 0.62998641 8549472
0.069834292 -0.047002632 0.62940794 8286558
0.070718318 -0.047526073 0.62882942 8089433
0.072066128 -0.048005316 0.62914294 7826004
0.073882028 -0.048442949 0.63034558 7562830
0.075703606 -0.048883941 0.63154447 7167817
0.077062845 -0.04936995 0.63185048 6773058
0.078424945 -0.049857695 0.63215464 6311995
0.080260813 -0.050307129 0.63334423 5918005
0.081630036 -0.050799083 0.63364363 5589295
0.083475932 -0.051254455 0.63482672 5260592
0.084852308 -0.051750649 0.63512146 5194545
0.085754901 -0.052285109 0.63453084 5194036
0.087135553 -0.052783813 0.63482279 5128504
0.088039577 -0.053319123 0.63423121 5128760
0.088943601 -0.053854395 0.63363969 5194297
0.089847624 -0.054389704 0.63304806 5260091
0.07430318 -0.056025047 0.60257423 5326142
0.075158656 -0.056531597 0.60201442 5392191
0.076014116 -0.057038117 0.60145468 5523009
0.076869577 -0.057544652 0.60089487 5653826
0.077725038 -0.058051232 0.600335 5128004
0.07808958 -0.058585878 0.59890103 4602168
0.078943625 -0.059091557 0.59834224 4932909
0.07979767 -0.059597287 0.59778333 5263948
0.080651715 -0.060102973 0.59722447 6644843
0.081505731 -0.060608704 0.59666556 7960442
0.082359776 -0.061114382 0.59610671 8946569
0.083213806 -0.06162006 0.59554785 9866889
0.084067836 -0.062125791 0.59498894 10128777
0.084921882 -0.062631473 0.59443015 10456449
0.086279675 -0.06311667 0.59473705 10259065
0.08764036 -0.063603535 0.59504211 10126967
0.088497236 -0.06411092 0.59448135 9930357
0.089354143 -0.064618304 0.59392065 9733748
0.090720505 -0.065108597 0.59422195 9864563
0.092600673 -0.065584257 0.59538257 10060656
0.093974188 -0.066078752 0.59567922 9799022
0.095350549 -0.066574916 0.59597397 9603437
0.096729785 -0.067072764 0.59626693 9207660
0.097595245 -0.067585245 0.59570056 8748140
0.12747179 -0.06742245 0.64309609 8813933
0.12789772 -0.067993492 0.64162183 8879726
0.12884174 -0.068552434 0.64100415 9076848
0.12978575 -0.069111437 0.64038634 9338995
0.13125354 -0.069661736 0.64062136 9404790
0.13219897 -0.070221528 0.64000273 9470321
0.13367103 -0.070774391 0.64023489 9470316
0.13461791 -0.071335062 0.63961524 9536111
0.13662373 -0.071885124 0.6406936 9601650
0.13810433 -0.072443038 0.64092016 9732981
0.13958786 -0.073002666 0.64114487 9667192
0.14160796 -0.073561192 0.64221382 9601656
0.14256339 -0.074126929 0.64158869 9601656
0.14459205 -0.074690551 0.64265203 9602163
0.14608841 -0.075257748 0.6428684 9601902
0.14704813 -0.075826034 0.64224035 9601906
0.14908965 -0.076397255 0.64329529 9733238
0.1085761 -0.077591822 0.64291501 9538160
0.11100262 -0.078155801 0.64491081 9931124
0.056455113 -0.08296679 0.6426602 9667192
0.057346277 -0.083494499 0.64207697 9535861
0.058676101 -0.084035978 0.64239991 9470579
0.059568688 -0.084564537 0.64181578 9405301
0.069616005 -0.059053767 0.60782272 4470079
0.070474327 -0.059562046 0.607261 4666688
0.06990099 -0.060146812 0.60405087 4994370
0.070276365 -0.060677174 0.60261011 5391171
0.071128964 -0.061182003 0.60205221 5195588
0.071981564 -0.061686877 0.60149425 5067857
0.10147013 -0.047055479 0.61879468 4931632
0.10185866 -0.047630113 0.61734414 4537388
0.1027527 -0.048159484 0.61675906 4208175
0.094470531 -0.049457062 0.6006453 4142386
0.095338851 -0.049971182 0.60007715 4142137
0.096207172 -0.050485361 0.59950888 4273985
0.097075492 -0.050999541 0.59894061 4471616
0.098459303 -0.051474389 0.59923142 5065024
0.099329054 -0.051989373 0.59866232 5723984
0.10123549 -0.052429166 0.59980732 6908257
0.072834179 -0.062191729 0.60093629 6381918
0.073686793 -0.062696606 0.60037833 7762030
0.074539393 -0.063201427 0.59982049 8814462
0.13379468 -0.051647577 0.6384086 8878959
0.1347387 -0.052206535 0.63779086 9010033
0.13621397 -0.052731279 0.63802195 9141363
0.13769211 -0.0532577 0.63825107 9207153
0.13863897 -0.053818349 0.63763148 9272944
0.14065692 -0.054315586 0.63870382 9338738
0.061721712 -0.053006563 0.62843943 7561819
0.062598608 -0.053525787 0.62786567 7166297
0.063475497 -0.054045003 0.62729186 6772817
0.064352386 -0.054564234 0.62671798 6378568
0.064772092 -0.055116583 0.62524837 6049861
0.06564755 -0.055634964 0.62467545 5654849
0.066523008 -0.056153331 0.62410265 5259838
0.066937007 -0.05670229 0.62263674 4996667
0.065959461 -0.057338689 0.61849654 4733240
0.065899119 -0.057910565 0.61614603 4339254
0.065833092 -0.058479074 0.61379927 3946038
0.066228524 -0.059017036 0.61234558 4077367
0.066621102 -0.059553307 0.61089367 4273723
0.14160664 -0.05487797 0.63808239 9339252
0.075391993 -0.063706309 0.59926254 9930879
0.076244622 -0.06421113 0.59870464 9998720
0.077097222 -0.064716026 0.59814662 10128255
0.078441352 -0.065203786 0.59846228 10128254
0.079295397 -0.065709516 0.59790337 10127740
0.080149427 -0.066215202 0.59734452 10126970
0.081003472 -0.066720888 0.59678566 10127225
0.081857502 -0.067226604 0.59622675 10127481
0.067010783 -0.060087841 0.60944372 4535872
0.067397654 -0.060620759 0.60799551 4864067
0.068254553 -0.061128151 0.60743475 4995911
0.068637133 -0.061658476 0.60598952 5130576
0.068541087 -0.062209252 0.60366231 5331033
0.069393694 -0.062714085 0.60310441 5595483
0.069767699 -0.063239366 0.60166466 6842974
0.070618883 -0.063743338 0.60110772 8090991
0.071470067 -0.06424737 0.60055071 9077120
0.072321251 -0.064751357 0.59999377 10061949
0.073656738 -0.065238342 0.6003148 9932410
0.074509352 -0.065743223 0.59975684 9866364
0.075361952 -0.066248059 0.59919888 9997182
0.076703191 -0.066738427 0.59951621 10193537
0.077557221 -0.067244112 0.59895736 10061956
0.078411251 -0.067749843 0.59839845 9996670
0.079265296 -0.068255529 0.59783959 9996152
0.080613643 -0.068750113 0.59815228 9995639
0.081469104 -0.069256678 0.59759247 9929846
0.082324564 -0.069763213 0.59703267 9864307
0.083678618 -0.070261195 0.59734154 9799024
0.085535586 -0.070753098 0.59851646 9733742
0.056074649 -0.079233259 0.64065319 9535607
0.057400979 -0.079766229 0.64097857 9339000
0.05873014 -0.080300957 0.64130199 9207413
0.059621312 -0.080828622 0.64071888 9076082
0.060954772 -0.081365839 0.64103955 9010288
0.062291123 -0.081904769 0.64135844 8878958
0.063185148 -0.082434133 0.64077342 8812908
0.064525746 -0.082975596 0.64108944 8746858
0.066317208 -0.083531648 0.64230376 8681068
0.06721551 -0.084063575 0.64171588 8681069
0.069466427 -0.084639341 0.64382285 8681582
0.070369035 -0.085173756 0.64323223 8878703
0.071725339 -0.085724518 0.64353794 9076081
0.073084503 -0.086276963 0.64384186 9273716
0.073989958 -0.086813137 0.64324933 9536118
0.075353429 -0.087368131 0.6435504 9602168
0.076260313 -0.087905079 0.64295703 9733239
0.078549758 -0.088503644 0.64503872 9733494
0.079923227 -0.089064568 0.64533329 9799029
0.080835804 -0.089604944 0.64473611 9799029
0.081748411 -0.090145305 0.64413893 9798772
0.083127573 -0.090709597 0.64442968 9798514
0.084509596 -0.091275588 0.64471865 9798260
0.085894465 -0.091843247 0.64500564 9732982
0.086811349 -0.092386141 0.64440566 9732982
0.088672802 -0.092983648 0.64557427 9733239
0.089592531 -0.093528256 0.64497232 9798776
0.090987399 -0.094101846 0.64525288 9799034
0.091908559 -0.094647303 0.64465004 9864826
0.086395338 -0.071262196 0.5979538 9406317
0.08775796 -0.071765259 0.59825706 9076334
0.083210185 -0.067719474 0.5965367 10193015
0.11193806 -0.078709707 0.64429873 10061945
0.11337481 -0.079269469 0.64455307 10192504
0.11431168 -0.079824224 0.64393997 9995639
0.1157527 -0.080386534 0.64419156 9864568
0.11669099 -0.080942154 0.64357758 9799289
0.061344333 -0.085124061 0.64304006 9470327
0.048836865 -0.059855539 0.63639987 10983552
0.049713753 -0.060374763 0.63582605 10918014
0.050590634 -0.060894001 0.63525224 10719356
0.05146753 -0.061413217 0.63467842 10586493
0.052780613 -0.061910499 0.63501334 10389886
0.053221308 -0.062451664 0.6335308 10258813
0.054098189 -0.062970921 0.63295692 10193532
0.054975078 -0.063490152 0.63238317 10193787
0.055851974 -0.064009383 0.63180929 10259322
0.056728862 -0.064528599 0.63123548 10324857
0.057605751 -0.065047815 0.63066173 10193785
0.058482632 -0.065567061 0.63008785 10127485
0.059359521 -0.066086322 0.62951398 9930881
0.060236409 -0.066605538 0.62894022 9799035
0.06111329 -0.067124754 0.62836641 9602165
0.061990179 -0.067643985 0.62779254 9404273
0.06241373 -0.068175003 0.62632126 9141870
0.063289203 -0.068693385 0.62574834 8943721
0.063252263 -0.069231972 0.62338406 8681061
0.062752023 -0.069776461 0.62012881 8482917
0.063161306 -0.070299044 0.61866677 8416102
0.064028181 -0.070812315 0.61809951 8349287
0.064433157 -0.07133235 0.61664027 8350824
0.065298609 -0.071844846 0.61607385 8352358
0.065699331 -0.072362319 0.61461747 8418660
0.066097185 -0.072878107 0.61316293 8484710
0.066959791 -0.073388875 0.61259848 8549992
0.066884317 -0.073904663 0.61025947 8615530
0.067744061 -0.074413747 0.60969687 8681324
0.068131886 -0.074923605 0.60824883 8747116
0.069463566 -0.075431898 0.60857165 8548973
0.10210811 -0.052945886 0.59923625 8089701
0.10350195 -0.053426664 0.59952056 8220778
0.10437597 -0.053944197 0.5989486 8352109
0.10525002 -0.054461721 0.59837663 8484208
0.13134789 -0.05337726 0.63872123 8681583
0.1328174 -0.053902846 0.63895589 8813166
0.13376141 -0.054461833 0.63833815 9010030
0.13523524 -0.054989938 0.63857007 9141358
0.13618065 -0.055549797 0.63795137 9207407
0.13765873 -0.056080464 0.63818043 9273200
0.13860561 -0.05664112 0.63756084 9339249
0.14062344 -0.057146866 0.63863295 9339251
0.14157318 -0.057709251 0.63801146 9404789
0.14252289 -0.058271606 0.63739002 9470328
0.070323318 -0.075940982 0.60800904 8285539
0.089754269 -0.076517761 0.641868 8416857
0.090669706 -0.07705982 0.64126891 8613735
0.091585159 -0.077601865 0.64066988 8615286
0.093942031 -0.078156769 0.64271021 8617074
0.095343649 -0.078706473 0.64298725 8946286
0.096748129 -0.07925792 0.64326233 9275761
0.097670719 -0.079804182 0.64265865 9537653
0.09907949 -0.080358133 0.64293092 9864822
0.1000035 -0.080905274 0.6423263 9930359
0.10092752 -0.081452429 0.64172161 9995896
0.10234199 -0.082009733 0.64199018 9995641
0.10326745 -0.082557723 0.6413846 9995641
0.045923226 -0.048492637 0.63506484 10655362
0.046795815 -0.049009312 0.63449383 10917766
0.047668435 -0.049526032 0.63392282 11245450
0.048973173 -0.050001178 0.63426387 11640971
0.049847208 -0.05051874 0.63369191 11509388
0.050721236 -0.051036265 0.63312 11443082
0.052031651 -0.051514823 0.63345724 11509385
0.052907109 -0.052033205 0.63288432 11640972
0.053782567 -0.052551616 0.63231146 10982288
0.054658026 -0.053069998 0.63173854 10326655
0.055533484 -0.053588364 0.63116568 9731694
0.056408949 -0.054106746 0.63059282 9206895
0.057284407 -0.054625157 0.6300199 8877936
0.057713471 -0.05517656 0.62854439 8614762
0.058587506 -0.055694137 0.62797242 8220261
0.059461534 -0.056211662 0.62740046 7826016
0.060335562 -0.056729186 0.62682849 7364956
0.061209589 -0.057246748 0.62625659 6970713
0.06163007 -0.057793129 0.62478656 6576214
0.062502682 -0.058309797 0.62421554 6246482
0.063375279 -0.05882648 0.62364459 5917775
0.063332252 -0.059395749 0.62128323 5654859
0.063742749 -0.059936199 0.61981982 5457736
0.063689709 -0.060499553 0.61746496 5260874
0.064093068 -0.061035756 0.61600626 5326412
0.064030051 -0.061593194 0.61365801 5392199
0.064891227 -0.062103126 0.61309445 5655363
0.10517955 -0.08312948 0.64252186 9930618
0.10709734 -0.083704606 0.6436553 9930873
0.1085247 -0.084269539 0.64391547 9996409
0.11045249 -0.084850609 0.64504236 10062201
0.11138792 -0.0854045 0.64443028 10062202
0.11282383 -0.085974544 0.64468473 10062203
0.11376069 -0.08652924 0.64407176 9996412
0.11570422 -0.087119624 0.64518839 9996154
0.062239774 -0.085654274 0.64245409 9469816
0.063579589 -0.086201698 0.64277041 9470073
0.12877278 -0.02983357 0.6304571 9602421
0.13076301 -0.030245781 0.63154989 9602164
0.1327589 -0.030661374 0.63263893 9798772
0.13422742 -0.031147808 0.6328755 9929845
0.064922243 -0.086750805 0.64308488 9536117
0.066715017 -0.087320477 0.64429802 9667442
0.068064816 -0.087873831 0.64460778 9799029
0.068967417 -0.088408291 0.64401716 9799032
0.070321515 -0.088964149 0.64432412 9799033
0.071225539 -0.089499429 0.64373255 9930107
0.053082183 -0.071846753 0.63805377 10192247
0.054400787 -0.072364464 0.63838452 10061175
0.055284813 -0.072887927 0.637806 9930358
0.056168839 -0.073411405 0.63722754 9799029
0.057052866 -0.073934868 0.63664901 9733490
0.058378585 -0.074456766 0.63697517 9470576
0.059264041 -0.074981093 0.63639569 9207407
0.060149498 -0.075505406 0.63581628 8944238
0.061034955 -0.076029688 0.63523686 8680811
0.062815264 -0.076557681 0.63645923 8350313
0.064152434 -0.077086374 0.63677788 8087910
0.065492444 -0.077616781 0.63709462 7825763
0.066383608 -0.078144446 0.63651145 7562336
0.06818106 -0.078682646 0.63772255 7431261
0.069984198 -0.079224169 0.6389299 7234655
0.072249055 -0.079776034 0.64102882 7365729
0.073607638 -0.080317423 0.6413334 7431527
0.074969068 -0.080860466 0.64163613 7759470
0.075873092 -0.081395775 0.64104456 8024176
0.076777115 -0.081931084 0.64045298 8353139
0.078144267 -0.082477525 0.64075196 8682867
0.07951428 -0.083025679 0.64104915 9011060
0.080887154 -0.083575517 0.64134437 9339252
0.082730278 -0.084140718 0.64252561 9471093
0.084110305 -0.084694788 0.64281625 9668214
0.085493147 -0.085250512 0.64310497 9668215
0.087350562 -0.085824221 0.64427674 9733751
0.088267431 -0.086367115 0.64367682 9799288
0.090133443 -0.086945891 0.64484304 9864820
0.091053173 -0.087490454 0.64424121 9865072
0.092450306 -0.088054672 0.64452058 9865334
0.0938503 -0.088620588 0.6447981 9799805
0.095253155 -0.089188173 0.64507371 9800059
0.096177176 -0.089735329 0.64446902 9865593
0.097584307 -0.090305448 0.64474189 9996665
0.098509744 -0.090853453 0.64413631 9996666
0.10040717 -0.091450766 0.64528203 10062203
0.072583914 -0.090057835 0.64403671 10060665
0.073489368 -0.090593994 0.64344418 9995384
0.074852049 -0.091154948 0.6437456 9929849
0.076217562 -0.091717556 0.64404511 9864571
0.078046009 -0.092308417 0.64523476 9864826
0.079418689 -0.092875257 0.64552975 9798777
0.073052585 -0.088976264 0.64377427 9930103
0.074414596 -0.0895347 0.64407617 9930104
0.075321466 -0.090071648 0.6434828 9930104
0.076687723 -0.090632603 0.64378184 9864568
0.078517646 -0.091220006 0.64497066 9864568
0.080331281 -0.093415663 0.64493251 9798266
0.081708223 -0.093985021 0.64522457 9732987
0.082622245 -0.094526276 0.64462644 9733241
0.084470674 -0.095128924 0.64580303 9602424
0.085387543 -0.095671833 0.64520299 9536889
0.12343341 -0.083770722 0.64394373 9667193
0.12437741 -0.084329724 0.64332592 9732728
0.11813633 -0.081507042 0.64382637 9733496
0.11907606 -0.082063437 0.64321148 9668216
0.12103553 -0.08264181 0.64431834 9602169
0.12248941 -0.08321178 0.64456141 9602170
0.061170705 -0.098013222 0.64510095 9930616
0.093335196 -0.023275767 0.62947553 9995635
0.060633235 -0.03360109 0.63094741 9929848
0.061511554 -0.034121156 0.63037264 9995383
0.062841713 -0.034574971 0.6306982 9929847
0.064174689 -0.035030425 0.63102192 9864055
0.065510541 -0.035487622 0.63134366 9798519
0.066393144 -0.036010236 0.63076615 9798772
0.13270655 -0.040091034 0.63355041 9338481
0.13417561 -0.040592823 0.63378608 9338738
0.13564757 -0.041096259 0.63401997 9404273
0.13658729 -0.041652698 0.63340503 9338991
0.067733265 -0.036469921 0.63108516 9732722
0.069076255 -0.036931366 0.63140219 9667186
0.069961712 -0.037455648 0.63082278 9667442
0.071770817 -0.037859216 0.6320309 9732977
0.073122382 -0.038325712 0.63234234 9667441
0.074012116 -0.038852587 0.63176012 9601644
0.075367957 -0.039321557 0.63206887 9339496
0.076259121 -0.039849233 0.63148576 9076072
0.07761924 -0.04032081 0.63179159 8944232
0.078511849 -0.040849332 0.63120753 8812134
0.079876274 -0.041323449 0.63151062 8613477
0.081716776 -0.041745599 0.63269812 8416864
0.083088323 -0.042223912 0.63299662 8153691
0.083986625 -0.042755831 0.63240874 7891033
0.085840017 -0.043185655 0.63358784 7627352
0.087220132 -0.043669026 0.63388067 7429972
0.088603094 -0.044154096 0.63417166 7298385
0.045471542 -0.049534943 0.6353178 10787204
0.046344146 -0.050051663 0.63474679 11115144
0.047646716 -0.050527703 0.63508916 11574156
0.048520751 -0.051045235 0.63451719 12099213
0.049394786 -0.05156276 0.63394529 11837838
0.050268814 -0.052080322 0.63337332 11575436
0.051578499 -0.052560594 0.63371098 11509643
0.05245395 -0.053078961 0.63313812 11510157
0.053329408 -0.053597342 0.6325652 11179664
0.054204866 -0.054115754 0.63199234 10916737
0.089507118 -0.044689409 0.63358003 7232592
0.090411142 -0.045224722 0.63298845 7166799
0.091799825 -0.045713164 0.63327569 7102029
0.045517765 -0.047541756 0.63298321 10589313
0.047247499 -0.047966961 0.63424093 10785921
0.048120119 -0.048483681 0.63366985 10982529
0.04942558 -0.048957158 0.63401049 11180164
0.050299622 -0.049474683 0.63343859 11246727
0.05117365 -0.049992215 0.63286662 11312518
0.052484803 -0.050469067 0.63320345 11509381
0.053360261 -0.050987478 0.63263053 11771783
0.12540126 -0.01313496 0.62721646 9799285
0.12685294 -0.013585705 0.62746483 9799285
0.12777697 -0.014132861 0.62686014 9799541
0.054675706 -0.051466886 0.63296455 10785160
0.055111177 -0.052024227 0.63148481 9801085
0.05642949 -0.052505326 0.63181692 9469298
0.056862101 -0.05306102 0.63033903 9206896
0.057737567 -0.053579394 0.62976611 8810863
0.058613017 -0.054097783 0.62919325 8417640
0.059488483 -0.05461615 0.62862039 7957601
0.060363941 -0.055134524 0.62804747 7562589
0.060787983 -0.055685122 0.62657523 7102041
0.061662011 -0.056202698 0.62600321 6707795
0.062536053 -0.056720223 0.62543124 6379085
0.062954359 -0.057267446 0.62396264 6049611
0.063826963 -0.057784174 0.62339157 5720393
0.063782461 -0.058356795 0.62103111 5391685
0.09270528 -0.046249311 0.63268316 6906187
0.093610734 -0.04678547 0.63209063 6772808
0.094516188 -0.047321592 0.63149816 6443078
0.095421627 -0.047857743 0.63090563 6180420
0.096327081 -0.048393864 0.63031316 5983043
0.097232535 -0.048930023 0.62972063 5851711
0.097643331 -0.049507085 0.62825584 5720636
0.098547354 -0.050042395 0.62766427 5654072
0.08778359 -0.025144398 0.62938535 9864823
0.089164779 -0.025596321 0.62967843 9864820
0.090063095 -0.026128218 0.62909067 9864305
0.091935799 -0.026505142 0.63025922 9929842
0.065543048 -0.031872705 0.63025558 9864570
0.066881105 -0.032324776 0.63057613 9864827
0.068222016 -0.032778516 0.63089484 9865337
0.069565803 -0.033233985 0.63121158 9799287
0.07045126 -0.033758268 0.63063222 9733750
0.071336716 -0.03428258 0.63005275 9733494
0.09332557 -0.026962072 0.63054675 9732723
0.094718203 -0.027420744 0.63083243 9601396
0.095622227 -0.027956054 0.63024086 9601654
0.055080339 -0.054634135 0.63141942 10059890
0.05595579 -0.055152494 0.63084656 9207407
0.056831248 -0.055670884 0.6302737 9010285
0.057261057 -0.056220625 0.62879771 8812651
0.058135092 -0.056738142 0.6282258 8417386
0.059009112 -0.057255719 0.62765384 8088931
0.059883147 -0.057773251 0.62708187 7628125
0.060757183 -0.058290768 0.6265099 7233369
0.061178394 -0.058835436 0.62503952 6838869
0.062050998 -0.059352148 0.62446851 6444369
0.062923603 -0.059868831 0.62389749 6180942
0.062882058 -0.060434703 0.6215353 5984586
0.063293286 -0.06097341 0.62007153 5788230
0.063241713 -0.061533336 0.6177159 5656649
0.09652625 -0.028491318 0.62964928 9667188
0.097430274 -0.029026642 0.62905771 9864307
0.098334298 -0.029561952 0.62846613 10061168
0.073150247 -0.034675896 0.63125843 9799029
0.074504018 -0.035137266 0.63156867 9732981
0.075860664 -0.035600334 0.63187706 9667441
0.076751813 -0.036127999 0.63129389 9535854
0.077642992 -0.036655679 0.63071072 9404269
0.079005331 -0.03712216 0.63101536 9272428
0.080370545 -0.037590265 0.63131821 9141097
0.081738606 -0.038060069 0.63161916 9009510
0.083109513 -0.038531601 0.63191819 8812645
0.084483281 -0.039004803 0.63221538 8680292
0.086338237 -0.03942265 0.63339388 8548705
0.0872394 -0.039956275 0.63280416 8483166
0.088621736 -0.040434536 0.63309574 8417628
0.089524329 -0.040968996 0.63250512 8417371
0.090426922 -0.041503411 0.6319145 8417370
0.09181498 -0.041985083 0.63220233 8285785
0.092719004 -0.0425204 0.63161069 8219734
0.093623027 -0.043055709 0.63101912 7957076
0.094527051 -0.043590974 0.6304276 7759955
0.09543106 -0.044126283 0.62983596 7497555
0.096335083 -0.044661585 0.62924445 7300956
0.097239107 -0.045196868 0.62865287 7038822
0.098143131 -0.045732167 0.62806129 6843227
0.098550275 -0.046313483 0.62659872 6511185
0.098954573 -0.046893146 0.62513798 6248781
0.099855721 -0.047426727 0.62454832 5984074
0.099754542 -0.048047353 0.62222213 5721151
0.099735498 -0.030025661 0.62874615 9468781
0.10064095 -0.03056179 0.62815368 8876904
0.063184455 -0.062089924 0.61536396 5656396
0.06358429 -0.062621877 0.61390758 5722449
0.064445466 -0.063131794 0.61334413 6050902
0.064840995 -0.063661247 0.61189061 6446167
0.065700747 -0.064170346 0.61132795 7300184
0.06609197 -0.064697221 0.60987717 8155242
0.066480361 -0.065222427 0.60842836 8748156
0.067337252 -0.065729856 0.6078676 9404796
0.067721367 -0.0662525 0.60642159 9734524
0.068102613 -0.066773474 0.60497743 10127739
0.068956658 -0.067279205 0.60441852 10193274
0.069810688 -0.067784891 0.60385966 10258812
0.070664734 -0.068290561 0.60330081 10127998
0.071518764 -0.068796292 0.60274196 10062203
0.072372809 -0.069301978 0.6021831 9996153
0.073226839 -0.069807664 0.60162425 9930360
0.074080884 -0.070313394 0.60106534 9930103
0.075420558 -0.070811391 0.60138345 9929847
0.076276019 -0.071317971 0.60082358 9864311
0.07713148 -0.071824506 0.60026377 9798514
0.077986941 -0.072331041 0.59970397 9601901
0.079333767 -0.072833329 0.60001731 9405037
0.080190644 -0.073340714 0.59945655 9142381
0.081541762 -0.073845506 0.59976715 8944494
0.082400069 -0.074353725 0.59920549 8942191
0.10860893 -0.074815869 0.64298457 8942441
0.11003861 -0.075367168 0.64324373 8942692
0.11197104 -0.075920984 0.64436853 9010541
0.11290647 -0.07647489 0.64375639 9275254
0.1143447 -0.07703124 0.64400995 9602678
0.11528157 -0.077585995 0.64339685 9602679
0.10154639 -0.031097934 0.62756121 8613476
0.10245186 -0.031634048 0.62696868 8417122
0.1033573 -0.032170221 0.62637615 8154465
0.10065286 -0.048579227 0.62163436 5458741
0.10104714 -0.049152952 0.62018013 5196595
0.10194403 -0.049684022 0.61959326 4866610
0.091689512 -0.051097553 0.59998798 4538163
0.092554986 -0.051610041 0.59942156 4209204
0.093420446 -0.052122477 0.59885526 3881785
0.094285905 -0.052634951 0.59828895 4209726
0.09566398 -0.0531107 0.59858334 4541515
0.09653087 -0.053624008 0.59801608 5987673
0.09739776 -0.054137293 0.59744883 7436393
0.09826465 -0.054650616 0.59688157 8290170
0.099131539 -0.055163939 0.59631425 9209456
0.10051817 -0.055644769 0.59660298 8943974
0.10190764 -0.056127239 0.59688991 8745576
0.10434517 -0.056549836 0.59888333 8680555
0.10574321 -0.057037402 0.59916466 8680809
0.10661867 -0.057555769 0.5985918 8812903
0.13331102 -0.056688819 0.63973683 8944746
0.13425647 -0.057248656 0.63911813 9010286
0.13573162 -0.057781894 0.63934898 9141872
0.1366785 -0.058342535 0.63872939 9207411
0.13869052 -0.058853451 0.63980508 9339508
0.13964026 -0.059415806 0.63918358 9405045
0.14058997 -0.059978146 0.63856208 9536373
0.14207657 -0.060518172 0.63878542 9667446
0.14302771 -0.061081361 0.63816303 9798775
0.1047671 -0.032639012 0.62665069 7957339
0.10567398 -0.03317599 0.62605721 7957334
0.10658087 -0.033712983 0.62546378 7892055
0.10748774 -0.034250006 0.6248703 7759192
0.10890464 -0.034723014 0.62514013 7561049
0.10981296 -0.035260826 0.62454575 7561306
0.11174704 -0.03567414 0.62567407 7561818
0.1126582 -0.036213651 0.62507784 7694426
0.11408514 -0.036692604 0.62534112 7892569
0.1155149 -0.037173256 0.62560248 8023641
0.11694753 -0.037655562 0.625862 8154717
0.12046315 -0.037907392 0.6295464 8286562
0.12242867 -0.038339302 0.63065422 8483939
0.1243999 -0.038774535 0.63175833 8549988
0.12637684 -0.039213225 0.63285857 8681830
0.12888525 -0.039600592 0.63480818 8813161
0.12982069 -0.040154498 0.63419604 9010026
0.13075614 -0.040708397 0.6335839 9076076
0.13222162 -0.041210156 0.6338219 9207661
0.13315848 -0.041764911 0.63320881 9273199
0.13462822 -0.042269241 0.63344407 9338735
0.13610087 -0.042775225 0.63367742 9273199
0.13811208 -0.043234199 0.63475531 9273966
0.099451378 -0.050577659 0.62707275 5390644
0.1003554 -0.051112968 0.62648112 5193524
0.10075904 -0.051685821 0.62502104 4865588
0.10166164 -0.052220237 0.62443042 4602156
0.087467209 -0.053829897 0.59784037 4535333
0.088326946 -0.054338973 0.59727776 4471338
0.08868058 -0.054882217 0.59585035 4143920
0.09004645 -0.055357132 0.59615254 3819332
0.090906203 -0.055866215 0.59558994 5725016
0.092786685 -0.056312088 0.59675127 7698029
0.093649283 -0.05682287 0.59618676 9013378
0.095025122 -0.057303701 0.59648246 10389887
0.095889151 -0.057815317 0.59591705 10193532
0.097269267 -0.058298696 0.59620982 9996405
0.098134741 -0.058811177 0.59564352 9799535
0.099519163 -0.059297126 0.5959335 9602926
0.10090642 -0.059784699 0.59622175 9271917
0.04388541 -0.039366931 0.63191581 10061685
0.045181014 -0.039821718 0.63226324 10061686
0.046479486 -0.040278208 0.63260877 9996408
0.048212364 -0.040679563 0.63386524 9996151
0.049084969 -0.041196238 0.63329428 9865079
0.049957566 -0.041712914 0.63272327 9799288
0.051266052 -0.042175326 0.6330623 9799034
0.052140094 -0.042692859 0.63249034 9864827
0.053014122 -0.043210413 0.63191843 9930620
0.053888157 -0.043727942 0.63134646 9996153
0.055645324 -0.044143643 0.63258708 9996663
0.056965195 -0.044612814 0.63291866 10062201
0.057843514 -0.045132887 0.63234389 10193532
0.059167705 -0.045604602 0.63267261 10323830
0.060047448 -0.046125513 0.63209701 9930097
0.06092719 -0.046646435 0.63152128 9600112
0.061806932 -0.047167357 0.63094562 9138031
0.062686689 -0.047688279 0.6303699 8744808
0.063566424 -0.048209209 0.62979418 8548194
0.064446174 -0.048730131 0.62921852 8350558
0.065325908 -0.049251053 0.6286428 8087386
0.066205658 -0.049771961 0.6280672 7891287
0.067544103 -0.050252099 0.62838656 7429459
0.068425275 -0.050773878 0.62780988 6968908
0.069306448 -0.051295634 0.62723333 6574150
0.070187613 -0.051817406 0.62665665 6180676
0.071068794 -0.052339185 0.62608004 5851202
0.072881654 -0.052787896 0.62728423 5522493
0.07376568 -0.053311314 0.62670577 5125175
0.079336777 -0.053486321 0.63501269 4732205
0.080235094 -0.05401824 0.63442481 4601634
0.082076535 -0.054483835 0.63561034 4470313
0.082977697 -0.055017445 0.63502067 4470321
0.083878875 -0.055551048 0.634431 4536628
0.084780037 -0.056084666 0.63384122 4668727
0.069453791 -0.057630543 0.60323167 4865337
0.070306405 -0.058135416 0.60267377 5062203
0.071159005 -0.058640245 0.60211587 5259839
0.07201162 -0.059145141 0.60155785 5260355
0.073347241 -0.059623588 0.60187918 5259842
0.074201286 -0.060129274 0.60132033 4996417
0.075055316 -0.060634952 0.60076153 4737359
0.075909346 -0.061140675 0.60020262 5854813
0.076763377 -0.061646361 0.59964377 6972523
0.077617422 -0.062152091 0.59908485 8222585
0.078471467 -0.062657773 0.598526 9470589
0.079325497 -0.063163459 0.59796715 10063234
0.080179527 -0.06366919 0.59740824 10718590
0.081033573 -0.064174876 0.59684944 10653050
0.081887603 -0.064680547 0.59629059 10587514
0.082741633 -0.065186277 0.59573168 10391162
0.083595678 -0.065691963 0.59517282 10259320
0.084951267 -0.066182286 0.59548098 10128247
0.086309716 -0.066674247 0.59578729 9996152
0.087166607 -0.067181677 0.59522653 9930618
0.088023499 -0.067689061 0.59466583 9930101
0.08938764 -0.068184435 0.59496832 9733232
0.091263369 -0.068670347 0.59613144 9601903
0.092124566 -0.06918028 0.59556788 9273967
0.1230868 -0.069708094 0.64343643 8875369
0.12454377 -0.070258439 0.64367825 8812401
0.12497196 -0.070824355 0.64220285 9011322
0.12591454 -0.071382508 0.64158601 9207928
0.12685712 -0.071940616 0.64096922 9404791
0.12831981 -0.072494328 0.64120734 9601401
0.12926383 -0.07305333 0.64058954 9535868
0.13073085 -0.073609576 0.64082491 9470842
0.13220067 -0.074167565 0.64105827 9471097
0.13314755 -0.074728206 0.64043868 9536375
0.13514893 -0.075288549 0.64151943 9601910
0.13662733 -0.075851575 0.64174724 9667446
0.13810863 -0.076416269 0.64197326 9601910
0.14012428 -0.076985061 0.64304471 9536374
0.14107971 -0.077550799 0.64241952 9536631
0.14256956 -0.078120574 0.64263988 9602166
0.14406224 -0.078692093 0.64285827 9602166
0.14555782 -0.079265237 0.64307493 9602424
0.10438374 -0.06017464 0.59992599 9009511
0.10473599 -0.060717035 0.59849954 8878178
0.10561001 -0.061234582 0.59792757 8812905
0.1333144 -0.060614351 0.64079207 9010032
0.13426127 -0.061175052 0.64017242 9207410
0.13520814 -0.061735693 0.63955283 9273717
0.13615499 -0.062296379 0.63893318 9339253
0.13816546 -0.062819183 0.64000946 9404790
0.13911517 -0.063381523 0.63938797 9535862
0.14059955 -0.063926652 0.63961262 9536630
0.1415507 -0.064489856 0.63899016 9601911
0.0827474 -0.02692014 0.63015592 10061430
0.083641425 -0.027449504 0.6295709 9995893
0.085014701 -0.02790314 0.62986898 9930102
0.086390838 -0.02835843 0.63016528 9733238
0.087769836 -0.028815433 0.63045967 9536628
0.089635238 -0.029200912 0.63163257 9733234
0.091021374 -0.029662147 0.6319223 9995123
0.092410356 -0.030125037 0.6322102 9994869
0.093314394 -0.030660346 0.63161856 9995127
0.094218403 -0.03119567 0.63102698 9865337
0.095122427 -0.03173098 0.63043541 9733749
0.09602645 -0.032266244 0.62984383 9402738
0.096930474 -0.032801554 0.62925225 9139820
0.097834498 -0.033336863 0.62866068 8811622
0.098738521 -0.033872128 0.6280691 8483171
0.09964253 -0.034407437 0.62747753 8220000
0.10054655 -0.034942746 0.62688595 7957339
0.10145059 -0.035478026 0.62629437 7628374
0.1023546 -0.036013335 0.6257028 7364434
0.10325862 -0.036548629 0.62511128 7101007
0.10416265 -0.037083909 0.62451965 6838348
0.10506667 -0.037619203 0.62392813 6574152
0.1059707 -0.038154528 0.62333655 6311240
0.10687472 -0.038689837 0.62274492 6047047
0.10777874 -0.039225101 0.6221534 5849927
0.10817067 -0.039816711 0.62070012 5980488
0.10958679 -0.040295724 0.62097019 6112843
0.11049081 -0.040830996 0.62037867 6707279
0.11139484 -0.041366305 0.6197871 7299155
0.12006612 -0.041107688 0.63206458 7628887
0.12254933 -0.04149941 0.63403004 8022877
0.12347905 -0.042049963 0.6334216 8285794
0.12545301 -0.042499658 0.63452357 8614501
0.12743263 -0.042952772 0.63562167 8615783
0.12836808 -0.043506678 0.63500953 8681830
0.12930353 -0.044060577 0.63439739 8813157
0.13076676 -0.044567484 0.63463664 8944743
0.13170364 -0.04512224 0.63402355 9207146
0.13317119 -0.045631688 0.63426 9469547
0.1346416 -0.046142779 0.63449466 9338476
0.13664837 -0.04661198 0.635575 9272941
0.13812591 -0.04712734 0.63580489 9272943
0.13960631 -0.047644366 0.636033 9338476
0.14303939 -0.065037519 0.63921201 9601911
0.058853492 -0.034197301 0.63087326 9864052
0.0601786 -0.034650251 0.63120204 9864056
0.061056912 -0.035170332 0.63062721 9929847
0.062386341 -0.035625845 0.63095319 9929847
0.06371858 -0.036082998 0.63127732 9864054
0.12255445 -0.013240788 0.62783593 9864313
0.12400113 -0.013690714 0.62808758 9864823
0.12492371 -0.01423699 0.62748384 9930102
0.12637465 -0.014689434 0.62773269 9864310
0.12729868 -0.01523659 0.62712801 9864311
0.12875392 -0.015691582 0.62737405 9799032
0.065053686 -0.036541894 0.63159955 9798517
0.06593629 -0.037064523 0.63102192 9733234
0.067275666 -0.037525922 0.63134134 9733232
0.068617925 -0.03798905 0.63165891 9733230
0.069503397 -0.038513362 0.63107944 9667437
0.071311012 -0.038920313 0.6322884 9667182
0.072661832 -0.039388504 0.63260037 9601391
0.074015498 -0.039858397 0.63291037 9470314
0.074906662 -0.040386062 0.6323272 9273190
0.075797841 -0.040913779 0.63174403 9076071
0.077157214 -0.041387018 0.63205034 8878696
0.078049824 -0.041915584 0.63146621 8746084
0.079413518 -0.042391356 0.63176984 8482913
0.08125253 -0.042816956 0.63295811 8285790
0.082623333 -0.043296982 0.63325697 7956060
0.084472388 -0.043728508 0.63443875 7628120
0.085373551 -0.044262085 0.63384908 7364693
0.086752936 -0.0447472 0.63414234 7102033
0.088135168 -0.045233991 0.63443363 6970190
0.089039192 -0.0457693 0.63384205 6838604
0.089943215 -0.046304572 0.63325047 6707274
0.11672407 -0.078144908 0.64364761 9602168
0.11766237 -0.078700498 0.64303362 9601657
0.11910918 -0.079261944 0.64328164 9601913
0.12004891 -0.079818398 0.64266664 9602170
0.12201132 -0.080389947 0.64377189 9667453
0.12295391 -0.080948099 0.64315504 9601920
0.1244107 -0.081515461 0.64339644 9601917
0.091331154 -0.046794746 0.63353813 6641481
0.092236608 -0.047330905 0.6329456 6509897
