# .PCD v0.7 - Point Cloud Data file format
VERSION 0.7
FIELDS x y z rgba
SIZE 4 4 4 4
TYPE F F F U
COUNT 1 1 1 1
WIDTH 1104
HEIGHT 1
VIEWPOINT 0 0 0 1 0 0 0
POINTS 1104
DATA ascii
0.16510153 -0.033863947 0.63451022 9864303
0.16663019 -0.034373119 0.63470787 9929843
0.16759421 -0.034943968 0.63407701 9864568
0.08873187 -0.015702266 0.62672025 10061944
0.089625895 -0.016231675 0.62613511 9995894
0.091008738 -0.01666737 0.62642783 9864821
0.092394426 -0.017104749 0.62671858 9799540
0.0017327033 -0.058157001 0.6355592 9798776
0.0033141635 -0.05859727 0.63691068 9864056
0.0045290254 -0.059068587 0.63730878 9995127
0.023234427 0.0052432679 0.6215964 9995126
0.024480119 0.0048845075 0.62197864 9995130
0.025318444 0.0043880753 0.62143004 9995391
0.026568413 0.0040267669 0.62180948 9995642
0.027821265 0.0036637746 0.62218708 9995638
0.029076964 0.0032990687 0.62256277 10060921
0.029919565 0.002800148 0.62201142 9995645
0.031179532 0.0024329387 0.62238437 9995897
0.032023571 0.0019331537 0.62183207 9930358
0.13498481 0.0116564 0.62193662 9996152
0.1359074 0.011110138 0.62133294 10061688
0.13737537 0.010696929 0.62157226 10192505
0.13829939 0.010149773 0.62096757 10323577
0.13977163 0.0097340159 0.62120402 10192761
0.1417964 0.0094471388 0.62227899 10061691
0.14327575 0.0090271495 0.62251079 9995902
0.1442055 0.0084766261 0.62190241 9995642
0.14568917 0.0080541186 0.62213147 9864566
0.14662032 0.0075027607 0.62152213 9799026
0.14922187 0.0073303096 0.62341952 9930351
0.15015732 0.0067764036 0.62280738 10061678
0.15165241 0.0063471608 0.62302893 8813165
0.15315035 0.0059161596 0.62324864 7624247
0.033287823 0.0015633963 0.62220216 9930361
0.034554943 0.0011919104 0.6225704 9864828
0.035824917 0.00081877038 0.62293679 9864827
0.037097745 0.00044394657 0.62330127 9929850
0.038373418 6.7424029e-05 0.6236639 9995385
0.039651938 -0.00031082705 0.62402463 9929848
0.040933356 -0.00069071725 0.62438357 9929596
0.041787386 -0.0011964329 0.62382472 9994881
0.04307308 -0.0015788861 0.62418079 10060413
0.043928541 -0.0020854212 0.62362099 9929082
0.04521849 -0.0024704076 0.62397432 9863543
0.046075381 -0.0029777922 0.62341356 9798005
0.047369629 -0.0033653267 0.62376398 9798259
0.048666753 -0.003754545 0.62411267 9798513
0.049526498 -0.0042636283 0.62355006 9798516
0.050827883 -0.0046553649 0.62389588 9798264
0.051689059 -0.0051653124 0.62333232 9732983
0.12389125 0.021415524 0.61981916 9732722
0.1253358 0.02102695 0.62007421 9798255
0.12678315 0.02063657 0.62032729 9798765
0.12716098 0.019946169 0.6188798 9798513
0.12861119 0.019554179 0.61913109 9798517
0.053439222 -0.0054439493 0.62458187 9798518
0.054749168 -0.0058407821 0.6249221 9864312
0.055614635 -0.0063532479 0.62435573 9798778
0.056928895 -0.0067526288 0.62469316 9799032
0.057795785 -0.007265944 0.6241259 9864566
0.059114307 -0.0076678284 0.62446046 9930102
0.060435675 -0.0080714114 0.62479323 9930103
0.062214397 -0.0083669908 0.62602407 9930356
0.063087001 -0.0088836737 0.62545305 9996145
0.064416967 -0.0092923231 0.62578022 10061940
0.06529101 -0.0098099001 0.6252082 10061943
0.06662523 -0.010221083 0.62553257 10061944
0.067500703 -0.010739449 0.62495971 10061690
0.068839207 -0.011153225 0.62528116 10061947
0.07018058 -0.011568654 0.62560081 10061693
0.071524844 -0.011985753 0.62591863 10061690
0.072871923 -0.01240458 0.62623453 10061688
0.073753089 -0.012926344 0.62565792 10061689
0.07510446 -0.013347704 0.62597102 9996154
0.076458678 -0.013770733 0.62628222 9996408
0.077342704 -0.014294196 0.62570375 9996406
0.078701213 -0.014719773 0.62601221 9996407
0.080538526 -0.015050028 0.62720472 9996153
0.081904173 -0.015479822 0.62750852 9996154
0.083272681 -0.01591133 0.62781036 10061691
0.084163845 -0.016439009 0.62722719 10127737
0.085536644 -0.016873021 0.62752634 10127480
0.086429223 -0.01740158 0.62694216 10127480
0.087321833 -0.017930109 0.62635809 10127225
0.088700369 -0.018367488 0.62665349 10192248
0.090081722 -0.01880664 0.62694693 10061175
0.091465935 -0.019247416 0.62723851 9995638
0.092852995 -0.019689921 0.62752825 9930358
0.094734579 -0.020046402 0.62869185 9799286
0.096128792 -0.020493094 0.62897694 9798775
0.097525865 -0.0209415 0.62926012 9798775
0.082119003 0.040097393 0.61495972 9798262
0.098429874 -0.021476809 0.62866855 9733495
0.099333897 -0.022012133 0.62807697 9667958
0.10073669 -0.022463877 0.62835646 9601910
0.10164213 -0.023000035 0.62776393 9601654
0.10304923 -0.023454372 0.62804061 9536118
0.10445915 -0.023910418 0.62831539 9470328
0.10536747 -0.024448216 0.62772101 9535098
0.10728757 -0.02482751 0.62885934 9602948
0.10819873 -0.025367022 0.62826312 9800591
0.10961868 -0.025828987 0.62853134 10000005
0.11104144 -0.026292592 0.62879777 9997691
0.11195548 -0.026833847 0.62819964 10063475
0.033540942 0.021741711 0.61914283 9995381
0.034382142 0.021243643 0.61859238 10060659
0.035648964 0.020908799 0.61896199 10126193
0.03649158 0.020409849 0.61841059 10257264
0.037334189 0.019910913 0.61785918 10126448
0.038606726 0.019572686 0.61822504 9995376
0.039450765 0.019072901 0.61767274 9995633
0.040727586 0.018732142 0.61803579 9996911
0.042007275 0.018389713 0.61839712 8421485
0.04328981 0.018045541 0.61875635 6902327
0.044575207 0.01769967 0.6191138 6947073
0.045863442 0.017352145 0.6194694 7098979
0.047154546 0.017002966 0.61982316 11927238
0.04800716 0.016498085 0.6192652 16711391
0.049302563 0.016146343 0.61961621 16711417
0.050156593 0.015640628 0.6190573 16710100
0.051010624 0.015134927 0.61849844 9345198
0.052311733 0.014779817 0.61884564 1981794
0.054064162 0.014572691 0.62009609 1310999
0.055372432 0.014213305 0.62043858 655646
0.056683518 0.013852235 0.62077922 5767461
0.057544701 0.013342317 0.62021571 10972235
0.058405876 0.01283237 0.61965215 13227888
0.059267059 0.012322452 0.61908859 15449434
0.060585298 0.01195718 0.61942452 12231748
0.061447896 0.011446398 0.61886013 9064994
0.062770419 0.011078577 0.61919326 4980993
0.064095803 0.010709029 0.61952454 917761
0.065424047 0.010337841 0.61985397 4522241
0.066755131 0.009964969 0.62018162 8213081
0.068089083 0.0095903836 0.62050724 12450482
0.069892943 0.0093528144 0.62172401 16710851
0.071234047 0.0089739822 0.6220451 16710355
0.072577983 0.0085934512 0.62236422 16705158
0.073453456 0.0080750845 0.62179136 8336441
0.074801683 0.0076920651 0.62210774 66896
0.076152757 0.0073072873 0.62242216 5067367
0.077506721 0.0069209002 0.62273479 10064245
0.078386471 0.0063999705 0.62215912 9998211
0.079266205 0.0058790706 0.62158346 9996670
0.080625862 0.0054892562 0.62189233 9996154
0.082469687 0.0052279942 0.62308288 10061433
0.083353728 0.0047045313 0.62250441 9995897
0.084721953 0.0043096207 0.62280762 9930105
0.085607395 0.0037853383 0.62222821 9930106
0.087466985 0.003514763 0.62340856 9929849
0.088843778 0.0031148158 0.62370622 9929848
0.089733511 0.0025880001 0.623124 9929850
0.091114596 0.00218549 0.62341887 10061180
0.092005759 0.0016578101 0.6228357 10191994
0.092896923 0.0011301003 0.62225252 9995385
0.094283715 0.00072423741 0.62254363 9864057
0.095673382 0.00031666085 0.62283289 9798266
0.097065881 -9.2569739e-05 0.62312031 9798519
0.098461226 -0.00050352886 0.62340575 9798517
0.099859446 -0.00091618672 0.62368941 9798518
0.10176329 -0.0012129284 0.62484086 9732982
0.10266446 -0.0017465539 0.62425107 9732982
0.10407124 -0.0021642931 0.62452912 9733495
0.10548086 -0.0025836863 0.62480527 9798518
0.10689336 -0.0030047931 0.62507957 9733238
0.10830875 -0.0034275539 0.62535203 9732982
0.10921563 -0.003964562 0.6247586 9667447
0.11063527 -0.0043899156 0.62502813 9667448
0.11257191 -0.0047061183 0.62615806 9667705
0.11348309 -0.0052456297 0.62556177 9733240
0.11491133 -0.0056760497 0.62582582 9667447
0.11582391 -0.0062164105 0.62522864 9667448
0.1167365 -0.0067567714 0.62463146 9536634
0.11817041 -0.007190574 0.6248917 9471093
0.11960718 -0.0076260455 0.62515014 9602417
0.12104681 -0.0080632307 0.62540668 9798772
0.12301494 -0.0083980151 0.62651598 9798774
0.12498875 -0.0087362267 0.62762153 9864567
0.12591133 -0.0092825182 0.62701786 9799544
0.12736382 -0.0097273029 0.62726593 9799031
0.12828784 -0.010274414 0.6266613 9799031
0.12974459 -0.010721747 0.62690663 9864312
0.13067003 -0.011269737 0.62630105 9798776
0.13266672 -0.011621449 0.6273917 9798776
0.13359502 -0.012171108 0.62678421 9799032
0.13560024 -0.012527902 0.62786925 9864311
0.1365314 -0.013079319 0.62725985 9864311
0.13908653 -0.013346408 0.62918371 9929848
0.14002196 -0.013900299 0.62857157 9930104
0.14150159 -0.014361177 0.62880188 9930105
0.14243846 -0.014915917 0.62818885 9995898
0.14392236 -0.015379298 0.62841636 10061436
0.14540915 -0.015844379 0.62864214 10061951
0.14744864 -0.016221467 0.62970471 10127484
0.14839123 -0.01677962 0.62908787 10193018
0.14988656 -0.017249767 0.62930793 10323833
0.15083057 -0.017808724 0.62869018 10192761
0.1523302 -0.018281404 0.62890756 10127482
0.15383266 -0.018755767 0.62912297 10061948
0.11338253 -0.027299985 0.62846321 9799787
0.11481245 -0.027767882 0.62872487 9601643
0.11572932 -0.028310791 0.62812489 9470059
0.11768088 -0.028708652 0.62924272 9404011
0.11911936 -0.029181585 0.62949878 9338475
0.12056071 -0.029656217 0.62975299 9338734
0.12200491 -0.030132547 0.63000536 9338993
0.12292892 -0.030679688 0.62940073 9404787
0.1243774 -0.031158537 0.62965024 9404789
0.12635466 -0.031571627 0.63075125 9404789
0.12781028 -0.032054707 0.63099617 9404534
0.12979755 -0.032473743 0.63209057 9404535
0.13179049 -0.032896161 0.63318121 9535864
0.13325754 -0.033386022 0.63341862 9601658
0.13419442 -0.033940777 0.63280553 9601661
0.13566573 -0.034433156 0.63304013 9536121
0.13713996 -0.034927204 0.63327295 9470326
0.13807969 -0.035483658 0.632658 9404789
0.1400969 -0.035920456 0.63373274 9404533
0.14157966 -0.036419615 0.63395989 9470067
0.1430653 -0.036920428 0.63418519 9404529
0.14455377 -0.037422985 0.63440853 9338994
0.14550065 -0.037983641 0.63378894 9404276
0.14753929 -0.03843312 0.63484967 9535348
0.14848901 -0.038995475 0.63422823 9535860
0.14998747 -0.039503936 0.63444501 9536117
0.15093862 -0.040067133 0.63382268 9601910
0.15354462 -0.040473711 0.63570958 9667960
0.15450005 -0.041039441 0.63508439 9798778
0.15600994 -0.041554671 0.63529372 9864317
0.15696679 -0.042121258 0.63466758 9995649
0.15903832 -0.042590167 0.6357069 10061692
0.16111551 -0.043062489 0.63674241 9996152
0.16263826 -0.043585297 0.6369434 9996151
0.016639732 -0.01563986 0.6262902 9601666
0.017874889 -0.016035277 0.62667793 9667195
0.018714659 -0.016532514 0.62612844 9667189
0.019954152 -0.01693048 0.62651342 9732981
0.021196485 -0.017330159 0.62689644 9667189
0.022441655 -0.017731477 0.62727767 9667189
0.1641639 -0.044109821 0.63714254 9930615
0.16625538 -0.044590596 0.63816869 9930615
0.16722368 -0.045163941 0.63753504 9865080
0.16819195 -0.04573727 0.63690144 9799800
0.16916026 -0.046310659 0.63626778 9865080
0.17069729 -0.046841916 0.63645941 9930614
0.17223717 -0.047374908 0.63664913 9930613
0.17320831 -0.047949959 0.63601357 9930613
0.17532554 -0.048445944 0.63702303 9930613
0.17744844 -0.048945289 0.63802868 9930356
0.1784253 -0.049523737 0.63738936 9995891
0.17940216 -0.050102163 0.63675016 9996148
0.18153651 -0.050608288 0.63774836 9930357
0.18309639 -0.051153097 0.63792497 9799286
0.18524072 -0.051665146 0.63891661 9864823
0.0057467483 -0.05954155 0.63770515 9732983
0.0065922067 -0.060042191 0.63715184 9536374
0.007814236 -0.060517717 0.63754535 9602166
0.0090391412 -0.060994942 0.63793695 9733239
0.0098874792 -0.06149723 0.63738185 9667448
0.010735773 -0.061999548 0.63682675 9667448
0.01196634 -0.06248017 0.6372146 9732983
0.012816094 -0.062983304 0.63665855 9864059
0.014050953 -0.063466445 0.63704365 9798527
0.015288688 -0.063951254 0.63742685 9733245
0.016529299 -0.064437792 0.6378082 9733500
0.017772727 -0.064925984 0.63818771 9733755
0.018628202 -0.065432534 0.6376279 9799547
0.019875921 -0.065923288 0.63800454 9865083
0.021126486 -0.066415727 0.63837934 9799803
0.021984816 -0.066923946 0.63781768 9799548
0.023239702 -0.067418903 0.63818973 9799293
0.024497405 -0.067915574 0.63855988 9865086
0.025358595 -0.068425506 0.63799632 9865342
0.026620597 -0.06892471 0.6383636 9864828
0.027885459 -0.069425613 0.63872904 9798522
0.029153176 -0.069928199 0.63909262 9798777
0.030018643 -0.070440635 0.63852632 9799032
0.031290658 -0.07094577 0.63888711 9798778
0.03215754 -0.071459085 0.63831985 9733244
0.033433832 -0.071966738 0.63867784 9733241
0.03471297 -0.072476059 0.63903397 9668214
0.035582729 -0.072991088 0.63846475 9602168
0.037279822 -0.073499843 0.63974053 9667706
0.038567558 -0.074014261 0.64009106 9798777
0.039441593 -0.074531794 0.63951916 9865081
0.041151531 -0.075048178 0.64078647 9930105
0.042028435 -0.075567394 0.64021266 9930106
0.043326132 -0.076087743 0.64055663 9929850
0.044204459 -0.076607808 0.63998187 9798523
0.023285694 -0.018231276 0.62672532 9667189
0.024940602 -0.018539254 0.62803447 9732982
0.026194356 -0.018945683 0.62841004 9667192
0.027042679 -0.019448016 0.62785488 9667190
0.028300725 -0.019856978 0.62822765 9667445
0.029561616 -0.020267639 0.62859857 9733234
0.030825377 -0.020679969 0.62896758 9799280
0.03209199 -0.021093998 0.62933481 9865074
0.032946028 -0.021599684 0.62877595 9930613
0.033800066 -0.02210537 0.6282171 9996149
0.035072379 -0.022522826 0.62858051 9930358
0.035927854 -0.023029361 0.6280207 9930358
0.036783308 -0.023535896 0.6274609 9930102
0.038061336 -0.023956686 0.62782061 9995639
0.039342225 -0.024379209 0.62817842 9930361
0.040625997 -0.024803355 0.62853444 9930360
0.045506462 -0.07713072 0.64032304 9732986
0.046811312 -0.077655256 0.64066237 9667961
0.048119023 -0.078181535 0.64099979 9667701
0.015504725 -0.0093694367 0.62484497 9863543
0.016736485 -0.0097520985 0.62523532 9798007
0.017971061 -0.010136459 0.62562376 9732471
0.018809386 -0.010632891 0.62507516 9732471
0.020048283 -0.011019755 0.62546086 9732470
0.021692015 -0.011299703 0.62677795 9732726
0.022534631 -0.011798639 0.62622654 9798263
0.023782082 -0.012190599 0.62660664 9799032
0.024626136 -0.012690384 0.62605435 9798520
0.02547016 -0.013190184 0.62550199 9667448
0.026723318 -0.013585541 0.62587827 9536376
0.027979366 -0.013982568 0.62625277 9733241
0.029238246 -0.014381308 0.62662536 9929849
0.030499987 -0.014781762 0.62699604 9995641
0.031764559 -0.015183855 0.62736487 10061432
0.033032015 -0.015587676 0.62773186 9996152
0.03388463 -0.016092543 0.6271739 9996152
0.035156369 -0.016498882 0.62753814 9930616
0.036010399 -0.017004568 0.62697929 9865079
0.037286423 -0.017413456 0.62734061 9930615
0.038141884 -0.017920021 0.62678081 9995895
0.038997345 -0.018426556 0.62622106 9995639
0.040279076 -0.018838797 0.62657869 10061175
0.041563652 -0.019252796 0.62693441 10061175
0.042851128 -0.019668419 0.62728834 10061687
0.044141404 -0.020085756 0.62764037 10061944
0.045002587 -0.020595688 0.6270768 10061689
0.046730578 -0.020925526 0.62833881 10061689
0.012048416 -0.079731479 0.64015633 13172448
0.013284348 -0.080245242 0.64053971 16182228
0.014139824 -0.080751806 0.63997996 12835016
0.015380047 -0.081268102 0.64036053 9534065
0.01700934 -0.081796706 0.64167881 5053466
0.017869107 -0.082305834 0.64111614 662035
0.019117884 -0.08282724 0.64149112 2365709
0.020369537 -0.083350271 0.6418643 4140572
0.021624051 -0.08387506 0.64223552 3943980
0.02248808 -0.084386691 0.64167011 3812390
0.023746885 -0.084913984 0.64203858 3877921
0.025008552 -0.085443005 0.64240515 3943455
0.026273057 -0.085973695 0.64276987 3285278
0.027141377 -0.08648783 0.64220166 2689851
0.028410174 -0.087021053 0.64256358 5787225
0.030083716 -0.087575912 0.64385277 8947819
0.030956328 -0.088092595 0.64328176 9473150
0.032233708 -0.0886309 0.64363807 9996158
0.033107743 -0.089148432 0.64306617 9865343
0.03479699 -0.089712575 0.6443451 9799293
0.035673879 -0.090231836 0.64377123 9799548
0.036961243 -0.090776026 0.64412099 9865085
0.038251467 -0.091321945 0.64446896 9799806
0.039131224 -0.091842875 0.64389324 9734013
0.04042571 -0.092391342 0.64423829 9734013
0.041306883 -0.092913106 0.64366168 9734014
0.042605668 -0.093464091 0.64400393 9864575
0.0439073 -0.094016775 0.64434439 10061182
0.045211807 -0.094571143 0.64468288 9930109
0.046941072 -0.095158949 0.64593571 9799038
0.048252702 -0.095717564 0.64626956 9865087
0.049142435 -0.09624438 0.64568734 9995902
0.050458364 -0.096805543 0.64601839 9930365
0.051349528 -0.097333223 0.64543527 9929853
0.052669734 -0.097896889 0.64576352 9799038
0.053992823 -0.098462239 0.64608997 9733500
0.055318736 -0.099029317 0.64641446 9667962
0.056647502 -0.099598065 0.6467371 9602423
0.057979137 -0.1001685 0.64705789 9667957
0.058877446 -0.10070041 0.64647001 9798773
0.059775755 -0.10123233 0.64588219 9864310
0.061552152 -0.10184808 0.64710414 9929847
0.062893778 -0.10242444 0.64741838 10060919
0.064238258 -0.10300249 0.64773077 10191991
0.065142289 -0.1035378 0.64713913 10060920
0.066491045 -0.10411836 0.64744872 9929849
0.0678427 -0.10470065 0.64775646 9930106
0.068749577 -0.1052376 0.64716309 9930106
0.070105493 -0.10582246 0.64746791 9864827
0.071914703 -0.10645762 0.64866835 9864569
0.072825879 -0.10699713 0.64807212 9864567
0.074190378 -0.10758705 0.64837146 9930103
0.07510297 -0.10812742 0.64777428 10060919
0.076471731 -0.10871983 0.64807075 10191993
0.077843353 -0.10931398 0.64836532 10061178
0.078758791 -0.10985602 0.64776629 9930107
0.080134705 -0.11045267 0.64805812 9930619
0.081975356 -0.11110644 0.64923805 9930365
0.083358392 -0.11170734 0.64952517 9931135
0.08474429 -0.11230989 0.64981043 9996156
0.08566688 -0.11285619 0.6492067 9734009
0.087057069 -0.11346133 0.64948916 9471350
0.088450104 -0.11406812 0.64976978 9667956
0.090316489 -0.11473714 0.65093285 9929845
0.091716662 -0.11534813 0.65120876 9798775
0.093593031 -0.11602308 0.65236533 9667704
0.09452562 -0.11657529 0.65175503 9602425
0.095458195 -0.11712748 0.6511448 9602172
0.097345978 -0.11780919 0.6522938 9866368
0.098281413 -0.1183631 0.65168166 10193998
0.099697307 -0.11898342 0.65194732 5505308
0.10159795 -0.11967273 0.65308791 917881
0.10253768 -0.12022913 0.65247303 8834774
0.10444687 -0.12092355 0.65360802 16711398
0.10538946 -0.12148164 0.65299129 16514806
0.10633203 -0.12203978 0.65237445 16308091
0.10727461 -0.12259793 0.6517576 8126721
0.10870765 -0.1232284 0.65201205 65890
0.11014356 -0.12386057 0.65226465 8231620
0.1125689 -0.12464251 0.65425408 16383712
0.11450811 -0.12535465 0.65536952 16514813
0.11645301 -0.12607019 0.65648115 16711420
0.11740844 -0.12663592 0.65585589 16711419
0.11836387 -0.12720163 0.6552307 16711369
0.11981975 -0.12784564 0.65547019 13560727
0.12127848 -0.12849134 0.65570778 10420563
0.1227401 -0.12913875 0.65594357 7405840
0.12470929 -0.12986866 0.65703928 4421231
0.048029438 -0.021347929 0.62868518 10061688
0.048894897 -0.02186041 0.62811887 9930616
0.049760364 -0.022372875 0.62755251 9865081
0.051064961 -0.022798691 0.62789518 9799547
0.051931851 -0.023311976 0.62732792 9799289
0.053240709 -0.023740292 0.62766784 9799031
0.054552421 -0.024170339 0.6280058 9798772
0.056311823 -0.024518773 0.62924725 9733490
0.057184421 -0.025035486 0.62867618 9733493
0.058504738 -0.025470555 0.62900865 9733495
0.059378773 -0.025988132 0.62843663 9799030
0.060703345 -0.026425749 0.62876624 9864565
0.062030762 -0.02686508 0.62909395 9930105
0.041485742 -0.025312424 0.62797183 9996152
0.042773761 -0.025739178 0.62832499 10127480
0.044064663 -0.026167586 0.62867624 10061945
0.044927254 -0.026678368 0.62811172 9996663
0.046222433 -0.02710928 0.62846029 9996406
0.047520459 -0.027541921 0.62880689 10061429
0.048821352 -0.02797626 0.62915164 9995893
0.049688235 -0.028489575 0.62858438 9996145
0.050993405 -0.028926432 0.62892628 9865070
0.052301429 -0.029364988 0.62926638 9799541
0.054053433 -0.029730499 0.63051188 9799293
0.055368617 -0.030173287 0.63084733 9864570
0.056242645 -0.030690819 0.63027537 9864568
0.057562098 -0.031136155 0.63060796 9799287
0.058884397 -0.03158316 0.63093871 9799286
0.059761278 -0.032102376 0.63036489 9799287
0.061087877 -0.032551914 0.63069284 9864568
0.061966188 -0.033071995 0.63011807 9864568
0.063297085 -0.033524096 0.63044322 9864568
0.064630814 -0.033977851 0.63076651 9864568
0.062907659 -0.027384311 0.62852019 9930108
0.064239368 -0.02782619 0.62884504 9995385
0.065573953 -0.028269738 0.62916815 9995895
0.066911377 -0.028715 0.6294893 9995893
0.068251655 -0.02916193 0.62980866 9996147
0.0695948 -0.029610559 0.63012606 10061429
0.070940793 -0.030060872 0.63044161 10061431
0.071826249 -0.0305852 0.62986219 10061432
0.073641375 -0.030966595 0.63106722 9995897
0.074529678 -0.031492606 0.63048589 9930359
0.075885683 -0.031948835 0.63079494 9864566
0.07724452 -0.032406777 0.63110209 9864051
0.078135684 -0.032934457 0.63051891 9732720
0.079498813 -0.033394933 0.63082325 9666927
0.080391422 -0.033923477 0.63023919 9535855
0.081758842 -0.034386486 0.63054073 9469551
0.083129123 -0.034851193 0.63084042 9338223
0.08450225 -0.035317555 0.63113827 9272430
0.049001604 -0.078704163 0.64042217 9536626
0.050313599 -0.079232931 0.64075679 9471095
0.051197626 -0.079756394 0.64017832 9602427
0.052513905 -0.080287725 0.64051008 9733496
0.053399354 -0.080812052 0.63993067 9667958
0.05559013 -0.081365064 0.64207655 9667191
0.056916393 -0.081902295 0.64240181 9536120
0.057807572 -0.08242996 0.6418187 9404790
0.059138127 -0.08296977 0.64214116 9339508
0.060030721 -0.083498284 0.64155704 9273716
0.061365582 -0.084040642 0.64187676 9273461
0.062703289 -0.084584653 0.64219457 9338996
0.064043835 -0.085130379 0.64251047 9273458
0.065387234 -0.085677758 0.64282447 9273457
0.0037700348 -0.037247941 0.63257551 9995890
0.0046069585 -0.037743479 0.63202786 9864306
0.0058208369 -0.038175583 0.63242799 9733238
0.0066591427 -0.038672015 0.63187933 9667705
0.0074975118 -0.039168403 0.63133079 9667447
0.0087170973 -0.039603915 0.6317271 9798261
0.0099396035 -0.0400411 0.63212162 9994871
0.011164926 -0.040479999 0.63251418 9863801
0.012007527 -0.040978942 0.63196278 9798778
0.013237156 -0.041420382 0.63235253 9799035
0.014469601 -0.04186349 0.63274044 9864572
0.015704952 -0.042308319 0.6331265 9864573
0.016943119 -0.042754825 0.63351065 9864573
0.017791443 -0.043257143 0.63295555 9799038
0.019033901 -0.043706156 0.63333696 9733757
0.019883655 -0.044209328 0.63278091 9799548
0.021130398 -0.044660926 0.6331594 9930364
0.021981575 -0.045164905 0.63260245 9930364
0.023232616 -0.045619052 0.63297814 9930365
0.024486527 -0.04607483 0.63335216 9930366
0.025743276 -0.046532322 0.63372415 9995389
0.026598729 -0.047038887 0.63316435 9929851
0.027859762 -0.047498945 0.63353354 9864316
0.029123649 -0.047960628 0.63390094 9799292
0.030390412 -0.048424039 0.63426644 9799293
0.031659998 -0.048889179 0.63463002 9799295
0.03293246 -0.049355958 0.63499177 9864574
0.034207776 -0.04982445 0.63535166 9930110
0.035485923 -0.050294641 0.63570964 9995390
0.03635139 -0.050807115 0.63514328 10061950
0.037633859 -0.051279824 0.63549852 10128255
0.038500749 -0.051793147 0.63493127 10194305
0.039367646 -0.052306477 0.63436395 10325116
0.040655807 -0.052782562 0.63471544 10390648
0.04152412 -0.053296726 0.63414723 10522494
0.042816579 -0.053775366 0.63449585 10655877
0.044537425 -0.05422103 0.63575858 10787203
0.045410037 -0.054737706 0.63518757 11839106
0.04671108 -0.055221427 0.63553065 12887174
0.047585107 -0.055738959 0.63495868 12297099
0.048890412 -0.056225222 0.63529891 11707022
0.04976587 -0.056743596 0.63472611 11575697
0.050641321 -0.057261977 0.63415319 11508619
0.051516786 -0.057780344 0.63358033 11179653
0.052392244 -0.058298763 0.63300741 10851971
0.05326771 -0.05881713 0.63243455 10521474
0.054143161 -0.059335511 0.63186163 10259070
0.055018634 -0.059853893 0.63128877 10127739
0.055451378 -0.060396817 0.62981111 9996662
0.056325413 -0.060914341 0.6292392 9931122
0.057199448 -0.061431903 0.62866724 9865584
0.058073476 -0.061949436 0.62809533 9865839
0.058947511 -0.062466968 0.62752336 9930608
0.059821539 -0.062984496 0.6269514 9798770
0.060695574 -0.063502043 0.62637949 9667184
0.061569594 -0.064019576 0.62580752 9470061
0.061989494 -0.064554885 0.62433821 9271915
0.062862091 -0.065071568 0.62376726 9074025
0.062363766 -0.065636456 0.62051016 8878189
0.062315255 -0.066181079 0.61815298 8944497
0.063180715 -0.066693515 0.61758667 9075565
0.063584916 -0.06721954 0.61612773 9141864
0.063986272 -0.067743823 0.61467069 9208172
0.06484887 -0.06825462 0.61410624 9273967
0.065711483 -0.068765402 0.61354172 9404272
0.066107117 -0.069286287 0.61208844 9470065
0.066499889 -0.069805518 0.61063701 9536628
0.067359634 -0.070314601 0.61007446 9603191
0.067748107 -0.070831329 0.60862571 9667959
0.068606436 -0.071339548 0.60806406 9667447
0.069464758 -0.071847796 0.60750234 9732981
0.07032308 -0.072356015 0.60694069 9667443
0.07070443 -0.072868466 0.60549676 9601904
0.071561322 -0.073375896 0.604936 9470572
0.072418228 -0.073883265 0.6043753 9404781
0.073275104 -0.07439065 0.60381454 9208174
0.074614689 -0.0748972 0.60413235 9009006
0.075472996 -0.075405449 0.60357064 8875887
0.097695246 -0.075950906 0.64158338 8744296
0.099103376 -0.076498047 0.64185631 8809313
0.10051437 -0.077046871 0.64212739 8877674
0.10143837 -0.077593982 0.64152277 9208180
0.10285364 -0.07814537 0.64179105 9536375
0.10476448 -0.078703493 0.64292949 9602939
0.10569277 -0.079253167 0.64232206 9734263
0.10761215 -0.079816356 0.64345491 9799796
0.10904029 -0.080375358 0.64371479 9930869
0.11096965 -0.080944479 0.64484102 9996407
0.1119051 -0.081498384 0.64422888 10061687
0.11284055 -0.082052276 0.64361674 9996152
0.11427866 -0.082617193 0.64387012 9996153
0.11571963 -0.08318378 0.64412153 9865082
0.11716349 -0.083752066 0.64437115 9799288
0.11810322 -0.084308475 0.64375627 9733750
0.12005971 -0.084893659 0.6448648 9733751
0.12151213 -0.085467041 0.6451087 9733752
0.12245613 -0.086026028 0.64449102 9733241
0.12391284 -0.086601883 0.64473224 9798779
0.12537238 -0.087179482 0.64497155 9864310
0.12735032 -0.087777391 0.64606601 9798769
0.12881698 -0.088359192 0.64630061 9733236
0.13028656 -0.088942677 0.64653349 9667959
0.13227876 -0.08954902 0.64761859 9602167
0.13323419 -0.090114743 0.6469934 9602166
0.13471229 -0.090703309 0.64722055 9667704
0.13566916 -0.091269895 0.64659441 9667963
0.13715155 -0.09186101 0.64681876 9667450
0.13863681 -0.092453808 0.64704132 9798521
0.14065331 -0.093074515 0.64811057 9929338
0.14161588 -0.093644515 0.64748061 9798267
0.14310969 -0.094242364 0.64769757 9667705
0.14407371 -0.094813198 0.64706671 9667960
0.14557184 -0.095413595 0.64728081 9667957
0.14760831 -0.09604615 0.64833701 9667955
0.14911355 -0.096650794 0.6485464 9733496
0.15062165 -0.097257137 0.64875394 9733758
0.15159281 -0.097832158 0.64811844 9733757
0.15364645 -0.09847486 0.64916342 9668220
0.15462045 -0.099051595 0.64852613 9668219
0.15613852 -0.099663839 0.64872712 9537402
0.15711395 -0.10024144 0.64808875 9406329
0.067181475 -0.086244032 0.64403677 9339247
0.06853202 -0.086795658 0.64434618 9470833
0.069434613 -0.087330118 0.6437555 9536884
0.070789456 -0.087884277 0.64406204 9602421
0.072147146 -0.088440135 0.64436674 9733494
0.018475123 -0.11247034 0.64804518 9798774
0.020116024 -0.1131088 0.64935231 9864566
0.020988643 -0.11362548 0.6487813 9929333
0.022249706 -0.11420558 0.64914668 9798260
0.065967388 -0.034433335 0.63108784 9798777
0.066849999 -0.034955963 0.63051027 9798775
0.068190865 -0.035413951 0.63082886 9667445
0.0695346 -0.035873666 0.63114554 9601654
0.070420057 -0.036397964 0.63056612 9667448
0.072230637 -0.036798134 0.63177335 9732981
0.07311894 -0.037324101 0.63119215 9667187
0.074938074 -0.037729338 0.63239372 9601647
0.075829253 -0.038257062 0.63181055 9404779
0.076720402 -0.038784727 0.63122737 9207146
0.078081265 -0.039254606 0.63153285 9075305
0.079445019 -0.039726119 0.63183653 8943977
0.080811605 -0.040199351 0.63213825 8746345
0.082181022 -0.040674273 0.63243812 8548962
0.083553299 -0.041150901 0.63273615 8351323
0.085405305 -0.041575562 0.63391638 8088411
0.086306483 -0.04210918 0.63332659 7890523
0.087687328 -0.042590845 0.63361907 7759192
0.088589922 -0.043125305 0.63302839 7693397
0.089975074 -0.043609533 0.63331801 7627605
0.090879098 -0.044144843 0.63272643 7561813
0.091783106 -0.044680111 0.63213485 7496273
0.092687145 -0.045215424 0.63154328 7300173
0.09407942 -0.045703892 0.63182813 7104080
0.094984859 -0.046239998 0.63123572 6903892
0.095890328 -0.046776164 0.63064319 6639183
0.096303225 -0.047356624 0.62917697 6443083
0.097207248 -0.047891933 0.62858534 6312518
0.098111272 -0.048427198 0.62799382 6114625
0.098518476 -0.049004313 0.6265313 5916987
0.099421069 -0.049538728 0.62594068 5654070
0.10032366 -0.050073188 0.62535006 5391414
0.10072513 -0.050646905 0.62389129 5128503
0.10162631 -0.051180463 0.62330163 4864804
0.087912217 -0.052802917 0.5975911 4668177
0.088771969 -0.053311992 0.59702855 4471590
0.089631721 -0.053821076 0.59646595 4012860
0.090999722 -0.054295141 0.59676677 3619641
0.091860905 -0.054805074 0.59620321 4935222
0.093744293 -0.055248354 0.59736276 6185311
0.094608322 -0.05575997 0.59679741 7829385
0.095986322 -0.056239951 0.59709167 9406084
0.096851781 -0.056752432 0.59652531 9735296
0.097717255 -0.057264913 0.59595895 9997940
0.099100992 -0.057748262 0.59624958 9669737
0.10048756 -0.058233339 0.59653819 9341546
0.10187699 -0.058720101 0.596825 9074540
0.1048369 -0.059128929 0.59967214 8877162
0.10571235 -0.059647296 0.59909928 8812648
0.10658781 -0.060165677 0.59852642 8813164
0.1332777 -0.059507322 0.63966632 8944752
0.13475139 -0.060043972 0.63989794 9141876
0.13569826 -0.060604665 0.63927835 9207672
0.13664512 -0.061165307 0.63865876 9338999
0.13865705 -0.061684731 0.63973415 9404790
0.13960677 -0.062247086 0.63911271 9535862
0.14109188 -0.062790513 0.63933682 9536119
0.14257988 -0.063335627 0.63955921 9601911
0.14353247 -0.063899666 0.63893586 9601911
0.14448504 -0.06446372 0.63831252 9601910
0.14651982 -0.06499663 0.639373 9536374
0.1485603 -0.065532938 0.64042979 9536628
0.14951861 -0.066100389 0.63980269 9667699
0.15102232 -0.066654801 0.64001477 9798770
0.15307565 -0.067198738 0.64106309 9733234
0.15458648 -0.067757368 0.64127046 9667956
0.15555048 -0.068328157 0.64063966 9667959
0.15651448 -0.068899006 0.64000881 9668213
0.15803103 -0.069461003 0.64021248 9733236
0.16010438 -0.070016801 0.64124775 9733239
0.16162805 -0.070583031 0.64144671 9799034
0.16315457 -0.071151003 0.64164376 9865080
0.16524224 -0.071715221 0.64266968 9996406
0.1667759 -0.072287396 0.64286208 10193779
0.16775133 -0.072864965 0.64222383 9735024
0.16928928 -0.073439643 0.6424135 9276284
0.023513615 -0.11478736 0.64951009 9732725
0.024780363 -0.11537081 0.64987171 9732726
0.026049979 -0.11595598 0.65023136 9732728
0.027322479 -0.11654286 0.65058923 9667193
0.028202221 -0.11706379 0.65001351 9667194
0.029478982 -0.11765315 0.65036857 9666939
0.03075859 -0.11824426 0.65072167 9666937
0.032041058 -0.11883703 0.65107298 9601656
0.032925084 -0.11936049 0.65049446 9601913
0.034211837 -0.11995579 0.65084296 9601915
0.15589644 -0.019147251 0.63016963 9996154
0.15684618 -0.019709636 0.62954813 9930616
0.1583572 -0.020189036 0.629758 9930360
0.15987112 -0.020670224 0.6299659 9864825
0.16195203 -0.02107184 0.63100135 9864823
0.16290747 -0.021637578 0.63037616 9865077
0.16386291 -0.02220333 0.62975097 9864822
0.16538681 -0.022690389 0.62995231 9930359
0.16748346 -0.023101319 0.63097751 9995895
0.16958579 -0.023515586 0.63199902 9930616
0.17112109 -0.024009421 0.63219291 9930360
0.17265929 -0.024504945 0.63238502 9996153
0.035097294 -0.12048011 0.65026355 9601916
0.036793925 -0.12115151 0.65153438 9601916
0.037682243 -0.12167752 0.65095305 9601916
0.038979009 -0.12227872 0.65129501 9601916
0.040278599 -0.12288167 0.65163505 9601916
0.041581064 -0.12348628 0.65197319 9536893
0.042886406 -0.12409261 0.65230954 9471356
0.044194587 -0.12470061 0.65264398 9602684
0.045090042 -0.12523082 0.65205806 9733498
0.046402499 -0.12584138 0.65238971 9799031
0.047717825 -0.12645356 0.6527195 9864569
0.048616111 -0.12698548 0.65213168 9864571
0.082991615 0.03958068 0.6143887 9732980
0.084354162 0.03925132 0.61469775 9732723
0.085719541 0.038920291 0.61500484 9732722
0.050778329 -0.12776597 0.65428829 9864571
0.051680915 -0.12830038 0.65369773 9799035
0.053007662 -0.12891938 0.65402001 9799035
0.054337256 -0.12954007 0.65434045 9799292
0.055242695 -0.13007624 0.65374792 9864826
0.073052585 -0.088976264 0.64377427 9930103
0.074414596 -0.0895347 0.64407617 9930104
0.075321466 -0.090071648 0.6434828 9930104
0.076687723 -0.090632603 0.64378184 9864568
0.078517646 -0.091220006 0.64497066 9864568
0.03843344 -0.12713973 0.65266836 9601143
0.039732948 -0.12775117 0.65300816 9601140
0.041445106 -0.1284489 0.65426826 9667192
0.042340569 -0.12897916 0.65368229 9733244
0.043236025 -0.12950936 0.65309638 9799034
0.044545516 -0.13012674 0.65342963 9799289
0.045857862 -0.13074581 0.65376109 9864825
0.046756171 -0.13127771 0.65317321 9864570
0.04849118 -0.13198894 0.65441841 9864570
0.049812116 -0.13261306 0.65474421 9799290
0.051135898 -0.13323891 0.65506816 9799035
0.080763981 0.036970355 0.61571854 9929334
0.081636578 0.036453657 0.61514747 9929329
0.08299692 0.036119185 0.61545777 9732973
0.083870932 0.035601653 0.61488587 9535857
0.085726097 0.035445191 0.61607271 9601398
0.087094948 0.035105638 0.61637735 9732981
0.087973282 0.034585573 0.61580265 9667443
0.089346468 0.034243502 0.61610448 9667189
0.090226218 0.033722557 0.61552876 9732983
0.091603652 0.033377968 0.61582786 9798516
0.092983946 0.03303165 0.61612499 9732977
0.094367102 0.032683678 0.61642027 9667186
0.095753118 0.032333978 0.6167137 9732210
0.097645417 0.032155521 0.61787623 9797747
0.098533735 0.031629555 0.61729503 9732724
0.099928319 0.031274773 0.6175828 9732722
0.10081805 0.030747913 0.61700058 9732721
0.10221691 0.030390628 0.61728555 9798258
0.10310809 0.029862933 0.61670238 9864051
0.10451125 0.029503129 0.61698467 9994866
0.10540384 0.0289746 0.61640054 9864304
0.1068113 0.028612189 0.61667997 9733746
0.10822161 0.028248154 0.61695755 9931123
0.10963474 0.027882375 0.61723316 10193010
0.11053161 0.027351312 0.61664629 10258289
0.11194904 0.026983045 0.61691922 10323315
0.11389135 0.02677498 0.61804903 9995382
0.11531591 0.026402481 0.61831719 9732982
0.11674334 0.026028253 0.6185835 9732982
0.11764736 0.025492944 0.61799192 9732470
0.11907907 0.025116198 0.6182555 9732470
0.12051368 0.024737783 0.61851716 9798262
0.12195109 0.024357654 0.61877698 9732982
0.1228594 0.023819797 0.6181826 9732979
0.12483452 0.023592316 0.61929089 9798512
0.052039906 -0.13377418 0.65447664 9798780
0.079891056 -0.091785148 0.64526516 9798776
0.080803648 -0.092325509 0.64466798 9732984
0.082181334 -0.092893213 0.64495957 9732984
0.083095357 -0.093434468 0.64436144 9732983
0.08447732 -0.094004676 0.64465028 9602423
0.085862145 -0.094576627 0.64493722 9471095
0.087720647 -0.095180944 0.64610744 9601912
0.088640377 -0.095725536 0.64550555 9732987
0.090033785 -0.096302554 0.64578688 9733246
0.057284854 0.032829739 0.61745971 2820151
0.058141761 0.032322325 0.61689889 85859
0.058998644 0.03181494 0.61633819 6985360
0.059396647 0.03112971 0.614878 13880001
0.060712427 0.030800171 0.61521673 15269619
0.062031068 0.030468948 0.6155535 16710872
0.063352592 0.030135997 0.61588854 14875581
0.064676933 0.029801406 0.61622161 13007711
0.06600415 0.029465087 0.61655277 6553857
0.067334205 0.029127128 0.61688215 197131
0.068667129 0.028787397 0.61720961 1710614
0.070002928 0.028446041 0.61753523 3217169
0.070869818 0.027932741 0.61696798 2626829
0.072209865 0.027588807 0.61729079 2034452
0.073552802 0.027243234 0.61761171 1311004
0.074422538 0.02672822 0.61704254 665645
0.076247185 0.026546948 0.61824799 4800830
0.077119797 0.026030205 0.61767691 8939102
0.078472733 0.025678717 0.61799139 9931646
0.079346761 0.025161199 0.61741942 10914426
0.080220804 0.024643652 0.61684746 10652022
0.081579432 0.024288721 0.61715811 10455420
0.082940891 0.023932151 0.61746693 10324867
0.084305242 0.023573853 0.61777377 10193788
0.085183561 0.023053773 0.61719906 10128245
0.090954944 -0.096847966 0.64518416 9798780
0.092829123 -0.097461596 0.64634401 9864314
0.093753144 -0.098008752 0.64573926 9995898
0.095156536 -0.098591641 0.64601415 9995899
0.097043619 -0.0992129 0.6471656 10061690
0.097971901 -0.099762559 0.64655817 10061945
0.099867523 -0.10038887 0.64770401 10127228
0.10128379 -0.1009794 0.64797044 10061439
0.10221638 -0.10153161 0.64736021 9996156
0.10412486 -0.10216554 0.64849758 9930618
0.10603903 -0.10280284 0.64963132 9930361
0.10697733 -0.10335845 0.64901727 9733753
0.10840787 -0.10395741 0.64927435 9602934
0.1093476 -0.10451387 0.64865947 9668980
0.11127749 -0.10516047 0.64978284 9734001
0.11222008 -0.10571858 0.64916605 9799278
0.11366059 -0.10632351 0.64941651 9930610
0.115104 -0.10693011 0.64966524 10062455
0.11655024 -0.10753839 0.649912 10258526
0.11850154 -0.1081977 0.65102136 10126917
0.11945127 -0.10876004 0.65039986 9993546
0.12090607 -0.10937342 0.65064102 9729360
0.12236376 -0.10998848 0.65088034 9465417
0.12331633 -0.11055252 0.65025699 9201731
0.12528764 -0.11122362 0.65135336 8942925
0.12675387 -0.11184375 0.65158701 9405016
0.12771073 -0.11241034 0.65096092 9864034
0.12918125 -0.113033 0.65119177 9930092
0.1316848 -0.1137712 0.65313298 10061168
0.13264737 -0.11434118 0.65250307 9864819
0.13412787 -0.11496978 0.65272743 9733236
0.13561128 -0.11560003 0.65294993 9733237
0.1365767 -0.11617169 0.65231818 9799029
0.13858657 -0.11686566 0.65338928 9733493
0.13955486 -0.11743902 0.65275562 9667960
0.14104821 -0.11807522 0.65297157 9667963
0.14201795 -0.11864942 0.65233696 9667962
0.14351557 -0.11928812 0.6525501 9734009
0.14448674 -0.11986321 0.65191454 9799781
0.14651947 -0.12057066 0.65297079 6638674
0.14749347 -0.12114741 0.65233338 3484003
0.093782976 -0.017543826 0.62700748 9667956
0.095667511 -0.017893452 0.62816942 9536371
0.097063199 -0.018336732 0.62845373 9667443
0.098461747 -0.01878177 0.62873602 9798519
0.099863157 -0.019228477 0.62901652 9732987
0.0076393411 -0.030745625 0.63032973 9602167
0.0084762201 -0.031241179 0.62978208 9602168
0.0093131289 -0.031736746 0.62923443 9667450
0.010535069 -0.032158643 0.62962967 9732991
0.011759855 -0.032582179 0.63002312 9667717
0.012987517 -0.033007443 0.63041472 9667967
0.013828658 -0.033505529 0.62986428 9602425
0.015060611 -0.033933342 0.63025302 9536889
0.086552188 0.022692926 0.61750317 10061940
0.087923676 0.022330441 0.61780548 9930356
0.088804856 0.021808662 0.61722887 9864050
0.090180621 0.021443628 0.61752826 9863536
0.091559231 0.021076854 0.61782581 9863538
0.092443272 0.020553421 0.61724734 9994613
0.09382616 0.020184141 0.61754209 10125940
0.094711632 0.019659799 0.61696267 9929844
0.097604036 0.01974548 0.61986887 9732980
0.098998368 0.019369435 0.62015617 9601907
0.10039558 0.018991645 0.62044156 9536113
0.1012896 0.018462297 0.6198566 9667184
0.10269107 0.018082019 0.62013912 9863795
0.10358654 0.017551776 0.61955315 9798519
0.10499229 0.01716898 0.61983299 9798265
0.10588916 0.016637918 0.61924613 9798268
0.10729919 0.016252559 0.61952311 9798265
0.10922672 0.016010415 0.62066126 9864054
0.11064388 0.015620824 0.62093359 9929332
0.11154649 0.015086364 0.62034291 9994866
0.11296794 0.01469427 0.6206125 10060405
0.11387198 0.01415896 0.62002087 9994872
0.1152977 0.013764333 0.62028766 9929591
0.11620317 0.013228159 0.61969507 9864054
0.11763322 0.012830939 0.61995906 9798265
0.11906612 0.012432124 0.62022114 9798268
0.1210293 0.012168761 0.6213358 9798010
0.12194046 0.01162925 0.62073964 9798008
0.12338196 0.011225294 0.62099606 9863800
0.12429453 0.010684948 0.62039894 9798264
0.12520714 0.010144588 0.61980176 9798264
0.016295396 -0.034362808 0.63063991 9602682
0.017533027 -0.034794003 0.63102496 9668474
0.018773548 -0.035226852 0.63140815 9734011
0.020016901 -0.035661429 0.63178939 9799548
0.020865224 -0.036163762 0.63123423 9864829
0.022112861 -0.036600843 0.63161272 9930364
0.022962622 -0.037104025 0.63105661 9930364
0.024214543 -0.03754364 0.63143235 9864826
0.025469325 -0.037984997 0.63180608 9799289
0.026726961 -0.038428009 0.63217801 9799288
0.027581006 -0.038933694 0.63161916 9799031
0.028842926 -0.03937925 0.63198835 9798775
0.055059023 0.028561838 0.6175493 16121597
0.055914499 0.028055318 0.61698949 16711414
0.056769967 0.027548768 0.61642975 16711408
0.05762542 0.027042232 0.61586994 16703915
0.05893825 0.026705854 0.61621022 15254886
0.059795149 0.026198484 0.61564958 13865025
0.061572485 0.02602803 0.61688536 9984797
0.062893882 0.025686644 0.6172201 6173199
0.030107692 -0.039826524 0.63235551 9798775
0.031375334 -0.040275443 0.63272095 9733239
0.032233648 -0.04078367 0.63215929 9864312
0.033505589 -0.04123516 0.63252187 9995385
0.034780353 -0.041688327 0.6328826 9929851
0.036057986 -0.042143185 0.63324147 9930362
0.0369206 -0.042653967 0.63267696 9996153
0.038202502 -0.043111365 0.63303298 10062203
0.039487273 -0.043570444 0.63338715 10061693
0.040352739 -0.044082914 0.63282079 10061436
0.041641809 -0.044544544 0.63317221 10061436
0.042508699 -0.045057829 0.63260496 10061439
0.043802038 -0.045521986 0.63295352 10127234
0.045098223 -0.045987837 0.63330024 10259585
0.045967966 -0.046502866 0.63273102 10457472
0.047699176 -0.046924639 0.63398796 10655868
0.049003966 -0.047395568 0.63432908 10785400
0.049878001 -0.047913101 0.63375717 10915709
0.050752036 -0.048430625 0.63318521 10983555
0.051626056 -0.048948187 0.63261324 11051394
0.053375848 -0.049380962 0.63385803 11050882
0.054252714 -0.049900193 0.63328415 10985089
0.05512961 -0.050419416 0.6327104 10390145
0.056006491 -0.050938632 0.63213658 9800060
0.057326965 -0.051418882 0.63246733 9469047
0.057760268 -0.051977087 0.63098896 9141618
0.05863715 -0.052496303 0.63041514 8745070
0.059514046 -0.053015586 0.62984127 8417126
0.060390927 -0.053534802 0.62926745 7957342
0.061267823 -0.054054026 0.62869364 7561562
0.062144704 -0.054573257 0.62811983 7101271
0.012490489 -0.078711301 0.63990879 6630338
0.013727151 -0.079223365 0.64029181 8141482
0.014966704 -0.079737157 0.64067286 6561170
0.015823595 -0.080244541 0.6401121 5046602
0.017454349 -0.080769733 0.64142954 3544578
0.01870247 -0.081288576 0.64180505 2103053
0.019563638 -0.081798509 0.64124149 3089177
0.02081605 -0.0823199 0.6416142 4009504
0.022071309 -0.082842976 0.641985 3812903
0.022935316 -0.083354563 0.64141965 3616037
0.024194859 -0.083880186 0.64178765 3550243
0.025457285 -0.084407464 0.64215392 3484443
0.026722528 -0.084936455 0.64251822 3020308
0.027590841 -0.085450634 0.64194995 2559541
0.029662795 -0.086016878 0.64417082 5988438
0.030535392 -0.086533561 0.64359981 9408618
0.031407997 -0.087050289 0.6430288 9604222
0.032686129 -0.08758685 0.64338475 9865088
0.033560164 -0.088104427 0.64281273 9799299
0.034842536 -0.088643551 0.64316583 9733760
0.036127776 -0.089184374 0.64351702 9799293
0.03741587 -0.089726895 0.64386636 9865084
0.038706847 -0.090271115 0.64421391 9865084
0.039586589 -0.09079203 0.64363819 9865340
0.040881835 -0.091338754 0.64398289 9799548
0.041763 -0.091860533 0.64340621 9734012
0.043062516 -0.092409804 0.64374816 9799548
0.044364892 -0.092960775 0.64408809 9865083
0.045670129 -0.093513444 0.64442623 9733755
0.047400877 -0.094097853 0.64567816 9602429
0.04828918 -0.094623864 0.6450969 9733503
0.049602993 -0.095181584 0.64542943 9864573
0.050919652 -0.095741004 0.64576012 9799036
0.051810816 -0.096268713 0.64517689 9798781
0.053131759 -0.096830681 0.64550477 9799039
0.054886788 -0.097429484 0.64674079 9733501
0.056214884 -0.097995654 0.64706403 9733243
0.057111748 -0.098526716 0.6464771 9732983
0.058444113 -0.099095464 0.64679748 9798771
0.059342422 -0.099627376 0.64620966 9864308
0.060240738 -0.1001593 0.64562178 9864309
0.062018618 -0.10077161 0.64684296 9929846
0.063360982 -0.10134624 0.64715677 9995384
0.064706214 -0.1019226 0.64746869 10061176
0.066054292 -0.10250066 0.64777875 9995640
0.066959731 -0.10303678 0.64718634 9930361
0.068312123 -0.10361736 0.64749366 9930106
0.069219008 -0.10415432 0.64690018 9930107
0.070575655 -0.10473748 0.64720464 9864317
0.072386354 -0.10536921 0.64840424 9864314
0.073297516 -0.10590874 0.64780802 9864568
0.07466276 -0.1064969 0.64810699 9864567
0.075575337 -0.10703731 0.64750975 9930102
0.076944858 -0.107628 0.64780581 9995640
0.07831721 -0.10822046 0.64810002 9930106
0.079232648 -0.10876252 0.64750093 9799034
0.080609292 -0.10935746 0.64779228 9865083
0.082451433 -0.11000782 0.64897144 9865086
0.083835214 -0.11060697 0.6492582 9930626
0.085221842 -0.11120786 0.64954299 9930622
0.086144432 -0.11175416 0.64893925 9733755
0.087535366 -0.11235756 0.6492213 9602422
0.088459387 -0.1129047 0.64861667 9667698
0.090796992 -0.11362824 0.65066379 9798515
0.09219791 -0.11423758 0.65093923 9732981
0.094075754 -0.11490907 0.65209502 9667703
0.095008343 -0.11546129 0.65148473 9667705
0.096894741 -0.11613788 0.6526348 9667709
0.097830176 -0.11669178 0.65202266 9866113
0.098765627 -0.11724569 0.65141052 10062939
0.10018225 -0.11786431 0.65167576 5574965
0.10208438 -0.11855021 0.65281558 1048964
0.10302411 -0.11910661 0.65220064 8893908
0.10493477 -0.11979762 0.6533348 16645861
0.10587735 -0.12035573 0.65271801 16580343
0.10681994 -0.12091385 0.65210122 16507260
0.10776253 -0.12147196 0.65148443 8270337
0.1087051 -0.12203012 0.65086758 65887
0.11014029 -0.12265973 0.65112066 6446013
0.11306049 -0.12350805 0.65397877 12844764
0.11500119 -0.12421678 0.65509337 14745340
0.11694756 -0.12492888 0.65620416 16711419
0.11790299 -0.12549461 0.65557897 16711419
0.11885843 -0.12606035 0.65495378 16711371
0.12031505 -0.12670268 0.65519279 11782043
0.12177451 -0.12734665 0.65542996 6881615
0.12323688 -0.12799235 0.65566534 4587780
0.12520753 -0.12871882 0.65676028 2317918
0.12617011 -0.12928881 0.65613043 5341624
0.062568001 -0.055125553 0.62664795 6707022
0.063443474 -0.055643935 0.62607503 6378821
0.063862503 -0.056193728 0.62460595 6049604
0.06473653 -0.05671126 0.62403399 5654851
0.06561055 -0.057228785 0.62346208 5325119
0.066023842 -0.057775218 0.62199658 5062459
0.065509997 -0.058375884 0.61874825 4799545
0.064987555 -0.058971535 0.6155054 4667960
0.06492158 -0.05953579 0.61315876 4470843
0.065782756 -0.060045715 0.6125952 4667967
0.066643938 -0.060555641 0.6120317 4865091
0.066566505 -0.061113168 0.60969245 5062983
0.064218119 0.025343515 0.617553 3803649
0.065545239 0.024998672 0.61788398 1508106
0.066875197 0.024652191 0.61821312 2235412
0.068208039 0.02430398 0.61854041 3023125
0.069543719 0.023954101 0.61886585 2826262
0.070882246 0.023602508 0.61918932 2629914
0.071751982 0.023087479 0.61862016 2302495
0.072621748 0.02257251 0.61805099 2036513
0.074440479 0.022377573 0.61925972 4063524
0.075313076 0.02186089 0.6186887 6111301
0.076663062 0.021502532 0.61900479 9220967
0.077537075 0.020985018 0.61843288 12293476
0.078891352 0.020624142 0.61874616 11106402
0.079766795 0.020105716 0.61817318 9930603
0.081125319 0.019742291 0.6184836 9798772
0.082486704 0.019377228 0.61879224 9733237
0.083365023 0.018857103 0.61821747 9929335
0.0847307 0.018489491 0.6185233 10126459
0.086099222 0.018120136 0.61882716 10061696
0.086980402 0.017598357 0.61825055 10061434
0.088353202 0.017226484 0.61855161 9994612
0.089728862 0.016852926 0.61885083 9929332
0.090612888 0.016329449 0.61827236 9798773
0.09199284 0.015953314 0.61856872 9733238
0.093873009 0.015722077 0.61973739 9602423
0.096257642 0.015633028 0.62177515 9536886
0.066954106 -0.061644334 0.60824388 5261126
0.067811005 -0.062151719 0.60768318 5787974
0.068194315 -0.062680334 0.60623747 6249560
0.068574786 -0.063207299 0.60479361 6710379
0.068952367 -0.063732535 0.60335159 7171190
0.069804981 -0.064237386 0.60279363 8091778
0.0701783 -0.064760089 0.60135448 9012351
0.071029484 -0.065264136 0.60079741 9471869
0.07236281 -0.06575197 0.60111982 9931644
0.07321541 -0.066256806 0.60056192 9931388
0.07406801 -0.066761687 0.60000396 9931133
0.074920624 -0.067266524 0.59944606 9997183
0.076261118 -0.06775859 0.59976381 10128004
0.077115163 -0.068264276 0.59920496 10062217
0.077969179 -0.068770006 0.59864604 9996672
0.078823224 -0.069275692 0.59808719 9864823
0.080170825 -0.069771975 0.59840024 9798518
0.081026301 -0.070278555 0.59784043 9732981
