# .PCD v0.7 - Point Cloud Data file format
VERSION 0.7
FIELDS x y z rgb
SIZE 4 4 4 4
TYPE F F F F
COUNT 1 1 1 1
WIDTH 303
HEIGHT 1
VIEWPOINT 0 0 0 1 0 0 0
POINTS 303
DATA ascii
-0.11231334 -0.26898575 0.99100006 6.7288503e-39
-0.11042572 -0.26898575 0.99100006 6.7284873e-39
-0.1179762 -0.2670981 0.99100006 6.6377238e-39
-0.11573714 -0.26628953 0.98800004 6.6384427e-39
-0.11420096 -0.2670981 0.99100006 6.6370092e-39
-0.11231334 -0.2670981 0.99100006 6.7292062e-39
-0.11042572 -0.2670981 0.99100006 6.8203228e-39
-0.1085381 -0.2670981 0.99100006 6.913952e-39
-0.10665049 -0.2670981 0.99100006 7.097267e-39
-0.11420096 -0.26521048 0.99100006 6.6370078e-39
-0.11231334 -0.26521048 0.99100006 6.8206801e-39
-0.11042572 -0.26521048 0.99100006 6.912517e-39
-0.1085381 -0.26521048 0.99100006 7.0050728e-39
-0.10665049 -0.26521048 0.99100006 7.0057931e-39
-0.10287524 -0.26521048 0.99100006 7.0994404e-39
-0.10098762 -0.26521048 0.99100006 7.3749624e-39
-0.099100009 -0.26521048 0.99100006 7.6508094e-39
-0.096918091 -0.26440763 0.98800004 7.3731337e-39
-0.093154289 -0.26440763 0.98800004 6.7284929e-39
-0.11573714 -0.26252571 0.98800004 6.3600565e-39
-0.11420096 -0.26332286 0.99100006 6.7288362e-39
-0.11231334 -0.26332286 0.99100006 6.910715e-39
-0.11042572 -0.26332286 0.99100006 7.0961824e-39
-0.1085381 -0.26332286 0.99100006 7.0043497e-39
-0.10665049 -0.26332286 0.99100006 7.0043525e-39
-0.10476286 -0.26332286 0.99100006 6.9125198e-39
-0.10287524 -0.26332286 0.99100006 6.8210529e-39
-0.10098762 -0.26332286 0.99100006 6.9136157e-39
-0.099100009 -0.26332286 0.99100006 7.0969181e-39
-0.097212382 -0.26332286 0.99100006 7.0050728e-39
-0.095324762 -0.26332286 0.99100006 7.0043553e-39
-0.093154289 -0.26252571 0.98800004 6.7288503e-39
-0.091272384 -0.26252571 0.98800004 6.453341e-39
-0.11231334 -0.26143524 0.99100006 7.830858e-39
-0.11042572 -0.26143524 0.99100006 8.1982028e-39
-0.1085381 -0.26143524 0.99100006 7.6461178e-39
-0.10665049 -0.26143524 0.99100006 7.0943888e-39
-0.10476286 -0.26143524 0.99100006 7.0021973e-39
-0.10256381 -0.26064381 0.98800004 6.910366e-39
-0.10068191 -0.26064381 0.98800004 7.0025645e-39
-0.099100009 -0.26143524 0.99100006 7.0032791e-39
-0.096918091 -0.26064381 0.98800004 7.0036365e-39
-0.095036194 -0.26064381 0.98800004 7.0039952e-39
-0.093154289 -0.26064381 0.98800004 6.5448191e-39
-0.091272384 -0.26064381 0.98800004 6.0860004e-39
-0.089390479 -0.26064381 0.98800004 6.3611481e-39
-0.11608858 -0.25954765 0.99100006 8.1095763e-39
-0.10476286 -0.25954765 0.99100006 7.0936671e-39
-0.10287524 -0.25954765 0.99100006 7.0940286e-39
-0.098800004 -0.25876191 0.98800004 7.0029106e-39
-0.096918091 -0.25876191 0.98800004 7.0018344e-39
-0.095036194 -0.25876191 0.98800004 7.0021917e-39
-0.093154289 -0.25876191 0.98800004 6.3597006e-39
-0.091272384 -0.25876191 0.98800004 5.8086918e-39
-0.089390479 -0.25876191 0.98800004 6.2678735e-39
-0.12003143 -0.25402001 0.97700006 5.894754e-39
-0.10953429 -0.25558001 0.98300004 6.7342116e-39
-0.095036194 -0.25687999 0.98800004 7.919102e-39
-0.093154289 -0.25687999 0.98800004 7.8283399e-39
-0.091272384 -0.25687999 0.98800004 7.7379463e-39
-0.089390479 -0.25687999 0.98800004 7.3709715e-39
-0.036585718 -0.25610003 0.98500007 6.7302838e-39
-0.034709528 -0.25610003 0.98500007 6.5469743e-39
-0.032833334 -0.25610003 0.98500007 6.8221249e-39
-0.12003143 -0.25215906 0.97700006 4.9778451e-39
-0.11817048 -0.25215906 0.97700006 4.7884344e-39
-0.10953429 -0.25370762 0.98300004 4.1430566e-39
-0.1036 -0.25293335 0.98000002 6.4583408e-39
-0.093978107 -0.25215906 0.97700006 8.8482147e-39
-0.092117146 -0.25215906 0.97700006 9.2155637e-39
-0.090256192 -0.25215906 0.97700006 9.6729573e-39
-0.087671429 -0.25009429 0.96900004 8.5691475e-39
-0.085825719 -0.25009429 0.96900004 7.5578738e-39
-0.038383812 -0.25370762 0.98300004 7.1894627e-39
-0.036585718 -0.25422382 0.98500007 6.9143149e-39
-0.034709528 -0.25422382 0.98500007 6.6391714e-39
-0.032833334 -0.25422382 0.98500007 7.007235e-39
-0.12003143 -0.25029811 0.97700006 5.7139753e-39
-0.11780763 -0.24952953 0.97400004 5.526361e-39
-0.11595239 -0.24952953 0.97400004 5.4305739e-39
-0.10953429 -0.25183523 0.98300004 5.1489129e-39
-0.093978107 -0.25029811 0.97700006 5.080444e-39
-0.092117146 -0.25029811 0.97700006 5.9076978e-39
-0.090256192 -0.25029811 0.97700006 6.8271401e-39
-0.087671429 -0.24824858 0.96900004 6.8278702e-39
-0.085825719 -0.24824858 0.96900004 6.828931e-39
-0.042000003 -0.25106665 0.98000002 7.6493576e-39
-0.040133331 -0.25106665 0.98000002 7.2823772e-39
-0.038383812 -0.25183523 0.98300004 6.9157512e-39
-0.036511429 -0.25183523 0.98300004 6.3625859e-39
-0.034709528 -0.25234765 0.98500007 5.8097848e-39
-0.032833334 -0.25234765 0.98500007 5.9034196e-39
-0.031051429 -0.25311619 0.98800004 5.9055594e-39
-0.11966286 -0.2476743 0.97400004 6.4522536e-39
-0.11780763 -0.2476743 0.97400004 6.3600607e-39
-0.11571429 -0.24716572 0.97200006 6.2689385e-39
-0.11386286 -0.24716572 0.97200006 6.1778177e-39
-0.10953429 -0.24996285 0.98300004 6.1770764e-39
-0.093978107 -0.24843715 0.97700006 1.2922116e-39
-0.092117146 -0.24843715 0.97700006 2.5796924e-39
-0.089794286 -0.24716572 0.97200006 3.9640562e-39
-0.087671429 -0.24640287 0.96900004 5.0732736e-39
-0.085825719 -0.24640287 0.96900004 6.1799658e-39
-0.083980002 -0.24640287 0.96900004 6.6438111e-39
-0.043866668 -0.2492 0.98000002 7.283466e-39
-0.042000003 -0.2492 0.98000002 8.3861954e-39
-0.040133331 -0.2492 0.98000002 7.5603808e-39
-0.038266666 -0.2492 0.98000002 6.7317033e-39
-0.036511429 -0.24996285 0.98300004 5.9030272e-39
-0.034709528 -0.25047144 0.98500007 5.0689674e-39
-0.032833334 -0.25047144 0.98500007 4.7862806e-39
-0.031051429 -0.25123429 0.98800004 4.5158076e-39
-0.11780763 -0.24581906 0.97400004 6.3600677e-39
-0.11571429 -0.2453143 0.97200006 6.2689469e-39
-0.11386286 -0.2453143 0.97200006 6.1774673e-39
-0.093689524 -0.24581906 0.97400004 3.7774915e-39
-0.091834284 -0.24581906 0.97400004 4.3241646e-39
-0.089794286 -0.2453143 0.97200006 4.8708924e-39
-0.087671429 -0.24455714 0.96900004 5.2547557e-39
-0.085825719 -0.24455714 0.96900004 5.7042699e-39
-0.083980002 -0.24455714 0.96900004 5.7064447e-39
-0.082134292 -0.24455714 0.96900004 5.8007843e-39
-0.08004 -0.2438 0.96600002 5.8072359e-39
-0.078442864 -0.24455714 0.96900004 5.9058817e-39
-0.07722953 -0.24657622 0.97700006 5.5381768e-39
-0.062022857 -0.2453143 0.97200006 7.2812827e-39
-0.060171433 -0.2453143 0.97200006 7.3709672e-39
-0.058320004 -0.2453143 0.97200006 7.921983e-39
-0.056468572 -0.2453143 0.97200006 8.3811535e-39
-0.054448571 -0.24455714 0.96900004 8.0127297e-39
-0.052765716 -0.2453143 0.97200006 7.7365142e-39
-0.050914288 -0.2453143 0.97200006 7.0979803e-39
-0.043866668 -0.24733335 0.98000002 5.7226395e-39
-0.042000003 -0.24733335 0.98000002 6.1839399e-39
-0.040133331 -0.24733335 0.98000002 5.8147749e-39
-0.038266666 -0.24733335 0.98000002 5.5378236e-39
-0.036511429 -0.24809049 0.98300004 4.4257448e-39
-0.034709528 -0.24859525 0.98500007 3.3140148e-39
-0.032833334 -0.24859525 0.98500007 3.310768e-39
-0.11571429 -0.24346288 0.97200006 6.360781e-39
-0.11386286 -0.24346288 0.97200006 6.2678679e-39
-0.093689524 -0.24396382 0.97400004 6.3611033e-39
-0.091645718 -0.24346288 0.97200006 6.0830647e-39
-0.089794286 -0.24346288 0.97200006 5.8057771e-39
-0.087671429 -0.24271144 0.96900004 5.5284896e-39
-0.085825719 -0.24271144 0.96900004 5.3423159e-39
-0.083980002 -0.24271144 0.96900004 4.8809944e-39
-0.082134292 -0.24271144 0.96900004 4.5125748e-39
-0.08004 -0.24195999 0.96600002 3.9608444e-39
-0.078442864 -0.24271144 0.96900004 3.4069587e-39
-0.076597147 -0.24271144 0.96900004 2.2102246e-39
-0.062022857 -0.24346288 0.97200006 7.7411665e-39
-0.060171433 -0.24346288 0.97200006 8.4740568e-39
-0.058139998 -0.24271144 0.96900004 9.0329619e-39
-0.056294285 -0.24271144 0.96900004 9.6751027e-39
-0.04891143 -0.24271144 0.96900004 6.5469547e-39
-0.043866668 -0.24546665 0.98000002 4.0638118e-39
-0.042000003 -0.24546665 0.98000002 3.9687379e-39
-0.040256191 -0.24621812 0.98300004 4.1495278e-39
-0.038266666 -0.24546665 0.98000002 4.3270891e-39
-0.11571429 -0.24161144 0.97200006 6.4526151e-39
-0.11386286 -0.24161144 0.97200006 6.4526151e-39
-0.09349715 -0.24161144 0.97200006 6.4547549e-39
-0.091645718 -0.24161144 0.97200006 6.2699993e-39
-0.089517146 -0.24086572 0.96900004 6.0856164e-39
-0.087671429 -0.24086572 0.96900004 5.9930705e-39
-0.085825719 -0.24086572 0.96900004 5.9005119e-39
-0.083980002 -0.24086572 0.96900004 5.6239236e-39
-0.081879996 -0.24012001 0.96600002 5.3473451e-39
-0.08004 -0.24012001 0.96600002 5.252644e-39
-0.078442864 -0.24086572 0.96900004 5.2497741e-39
-0.076360002 -0.24012001 0.96600002 4.328908e-39
-0.074751437 -0.24086572 0.96900004 3.5001969e-39
-0.072905719 -0.24086572 0.96900004 4.5074783e-39
-0.071060002 -0.24086572 0.96900004 5.6066624e-39
-0.063874289 -0.24161144 0.97200006 5.899786e-39
-0.061831433 -0.24086572 0.96900004 5.7179045e-39
-0.05998572 -0.24086572 0.96900004 5.5363845e-39
-0.093208574 -0.23902 0.96900004 6.5458799e-39
-0.091362864 -0.23902 0.96900004 6.4540388e-39
-0.089517146 -0.23902 0.96900004 6.4540416e-39
-0.087671429 -0.23902 0.96900004 6.4544045e-39
-0.085825719 -0.23902 0.96900004 6.4536843e-39
-0.083980002 -0.23902 0.96900004 6.3611285e-39
-0.082134292 -0.23902 0.96900004 6.2703748e-39
-0.08004 -0.23828 0.96600002 6.6388e-39
-0.078442864 -0.23902 0.96900004 7.0968971e-39
-0.076597147 -0.23902 0.96900004 6.453327e-39
-0.074751437 -0.23902 0.96900004 5.9019314e-39
-0.072905719 -0.23902 0.96900004 5.901909e-39
-0.071060002 -0.23902 0.96900004 5.8997706e-39
-0.067368567 -0.23902 0.96900004 5.4373828e-39
-0.065522857 -0.23902 0.96900004 5.0689674e-39
-0.06367714 -0.23902 0.96900004 4.795972e-39
-0.061639998 -0.23828 0.96600002 3.6824666e-39
-0.059799999 -0.23828 0.96600002 2.5775666e-39
-0.05796 -0.23828 0.96600002 1.8400086e-39
-0.087400004 -0.23644 0.96600002 6.269663e-39
-0.085560001 -0.23644 0.96600002 6.085992e-39
-0.083980002 -0.23717429 0.96900004 6.1774687e-39
-0.082134292 -0.23717429 0.96900004 6.2703874e-39
-0.080288574 -0.23717429 0.96900004 6.4533494e-39
-0.078442864 -0.23717429 0.96900004 6.6366532e-39
-0.076597147 -0.23717429 0.96900004 6.2693028e-39
-0.074751437 -0.23717429 0.96900004 5.9019538e-39
-0.072905719 -0.23717429 0.96900004 5.9012294e-39
-0.071060002 -0.23717429 0.96900004 5.900872e-39
-0.069214284 -0.23717429 0.96900004 6.0820333e-39
-0.067368567 -0.23717429 0.96900004 6.1753023e-39
-0.065522857 -0.23717429 0.96900004 5.8061653e-39
-0.063479997 -0.23644 0.96600002 5.4373926e-39
-0.061448574 -0.23570572 0.96300006 4.7898848e-39
-0.059799999 -0.23644 0.96600002 4.2342013e-39
-0.05796 -0.23644 0.96600002 3.8650586e-39
-0.087400004 -0.23459999 0.96600002 6.0856332e-39
-0.085560001 -0.23459999 0.96600002 5.7179283e-39
-0.083980002 -0.23532858 0.96900004 5.9930719e-39
-0.082134292 -0.23532858 0.96900004 6.2678707e-39
-0.080288574 -0.23532858 0.96900004 6.267163e-39
-0.078442864 -0.23532858 0.96900004 6.267156e-39
-0.076597147 -0.23532858 0.96900004 6.0838382e-39
-0.074982859 -0.23605716 0.97200006 5.8994469e-39
-0.073131427 -0.23605716 0.97200006 5.8987266e-39
-0.071060002 -0.23532858 0.96900004 5.9905607e-39
-0.069214284 -0.23532858 0.96900004 6.4497382e-39
-0.067368567 -0.23532858 0.96900004 7.0011085e-39
-0.065522857 -0.23532858 0.96900004 6.5426457e-39
-0.063479997 -0.23459999 0.96600002 6.1756667e-39
-0.061639998 -0.23459999 0.96600002 5.9927173e-39
-0.059799999 -0.23459999 0.96600002 5.9019538e-39
-0.057780001 -0.23387145 0.96300006 5.9033832e-39
-0.055945717 -0.23387145 0.96300006 5.9941228e-39
-0.083980002 -0.23348287 0.96900004 6.2678525e-39
-0.082134292 -0.23348287 0.96900004 6.358623e-39
-0.080288574 -0.23348287 0.96900004 6.4508298e-39
-0.078442864 -0.23348287 0.96900004 6.5430199e-39
-0.076597147 -0.23348287 0.96900004 6.3593461e-39
-0.074751437 -0.23348287 0.96900004 6.1756751e-39
-0.072905719 -0.23348287 0.96900004 6.1756765e-39
-0.071060002 -0.23348287 0.96900004 6.1760324e-39
-0.069214284 -0.23348287 0.96900004 6.4518962e-39
-0.067368567 -0.23348287 0.96900004 6.7277586e-39
-0.065522857 -0.23348287 0.96900004 6.4526081e-39
-0.063479997 -0.23276001 0.96600002 6.1778233e-39
-0.061639998 -0.23276001 0.96600002 6.1767513e-39
-0.059799999 -0.23276001 0.96600002 6.2710951e-39
-0.057780001 -0.23203714 0.96300006 6.2707336e-39
-0.055945717 -0.23203714 0.96300006 6.2725244e-39
-0.082134292 -0.23163715 0.96900004 6.5448121e-39
-0.067368567 -0.23163715 0.96900004 6.4533255e-39
-0.06532 -0.23092 0.96600002 6.2692902e-39
-0.063479997 -0.23092 0.96600002 6.1774617e-39
-0.061639998 -0.23092 0.96600002 6.3611397e-39
-0.059799999 -0.23092 0.96600002 6.6380811e-39
-0.057780001 -0.23020287 0.96300006 6.5462471e-39
-0.055829525 -0.22972478 0.96100003 6.5476848e-39
-0.053999048 -0.22972478 0.96100003 6.8231941e-39
-0.063479997 -0.22908001 0.96600002 5.9927117e-39
-0.061639998 -0.22908001 0.96600002 6.2685868e-39
-0.059799999 -0.22908001 0.96600002 6.6377266e-39
-0.057780001 -0.22836858 0.96300006 6.5458967e-39
-0.055829525 -0.22789429 0.96100003 6.4555046e-39
-0.053999048 -0.22789429 0.96100003 6.6384665e-39
-0.05961429 -0.22653429 0.96300006 6.7277656e-39
-0.057780001 -0.22653429 0.96300006 6.5448121e-39
-0.055945717 -0.22653429 0.96300006 6.3611495e-39
-0.054111432 -0.22653429 0.96300006 6.5448289e-39
-0.055829525 -0.22423334 0.96100003 6.4515431e-39
-0.053999048 -0.22423334 0.96100003 6.5448219e-39
-0.058995239 -0.21329048 0.95300007 6.8203256e-39
-0.064576194 -0.21191905 0.95500004 6.6370162e-39
-0.062625714 -0.21147525 0.95300007 6.4540654e-39
-0.06081048 -0.21147525 0.95300007 6.9136045e-39
-0.058995239 -0.21147525 0.95300007 7.4649692e-39
-0.057180006 -0.21147525 0.95300007 6.9150254e-39
-0.066395238 -0.21010001 0.95500004 7.0965552e-39
-0.064576194 -0.21010001 0.95500004 6.8217648e-39
-0.062625714 -0.20966002 0.95300007 6.6377448e-39
-0.060938098 -0.21010001 0.95500004 7.374591e-39
-0.058995239 -0.20966002 0.95300007 8.1096253e-39
-0.057180006 -0.20966002 0.95300007 7.1919794e-39
-0.066395238 -0.20828095 0.95500004 6.8214102e-39
-0.064440951 -0.20784478 0.95300007 6.5459009e-39
-0.062625714 -0.20784478 0.95300007 6.2704113e-39
-0.06081048 -0.20784478 0.95300007 7.0072644e-39
-0.058995239 -0.20784478 0.95300007 7.7462434e-39
-0.057180006 -0.20784478 0.95300007 5.9066538e-39
-0.066256195 -0.20602953 0.95300007 6.5444604e-39
-0.064440951 -0.20602953 0.95300007 6.2682364e-39
-0.062757149 -0.20646191 0.95500004 5.9930943e-39
-0.060938098 -0.20646191 0.95500004 6.7320887e-39
-0.059119053 -0.20646191 0.95500004 7.4610119e-39
-0.057300001 -0.20646191 0.95500004 4.6083508e-39
-0.064576194 -0.20464286 0.95500004 6.0838424e-39
-0.062757149 -0.20464286 0.95500004 5.7161361e-39
-0.061129529 -0.20528573 0.95800006 5.1636825e-39
-0.059304766 -0.20528573 0.95800006 4.6115611e-39
-0.057300001 -0.20464286 0.95500004 3.1310417e-39
-0.064779051 -0.20346096 0.95800006 5.9941481e-39
-0.062954292 -0.20346096 0.95800006 5.5338874e-39
-0.061129529 -0.20346096 0.95800006 3.6021078e-39
-0.059304766 -0.20346096 0.95800006 1.7549694e-39
-0.062954292 -0.20163621 0.95800006 4.4336439e-39
