# .PCD v0.7 - Point Cloud Data file format
VERSION 0.7
FIELDS x y z rgb
SIZE 4 4 4 4
TYPE F F F F
COUNT 1 1 1 1
WIDTH 101
HEIGHT 1
VIEWPOINT 0 0 0 1 0 0 0
POINTS 101
DATA ascii
-0.31170857 -0.34493142 1.026 6.5419325e-39
-0.30975428 -0.34493142 1.026 6.5419367e-39
-0.30779999 -0.34493142 1.026 6.5419423e-39
-0.31859142 -0.34197429 1.023 6.0813158e-39
-0.31757143 -0.34297714 1.026 5.7154074e-39
-0.31561714 -0.34297714 1.026 5.9919901e-39
-0.31366286 -0.34297714 1.026 6.2667777e-39
-0.31170857 -0.34297714 1.026 6.3582545e-39
-0.30975428 -0.34297714 1.026 6.5419311e-39
-0.30779999 -0.34297714 1.026 6.6337736e-39
-0.30584571 -0.34297714 1.026 6.8192368e-39
-0.30389142 -0.34297714 1.026 6.4508172e-39
-0.32053998 -0.34002572 1.023 6.5422842e-39
-0.31859142 -0.34002572 1.023 6.2667693e-39
-0.31757143 -0.34102285 1.026 6.0834612e-39
-0.31561714 -0.34102285 1.026 6.1756611e-39
-0.31366286 -0.34102285 1.026 6.1760156e-39
-0.31170857 -0.34102285 1.026 6.3593236e-39
-0.30975428 -0.34102285 1.026 6.4508088e-39
-0.30779999 -0.34102285 1.026 6.5430115e-39
-0.30584571 -0.34102285 1.026 6.6355644e-39
-0.30300286 -0.34002572 1.023 6.1753107e-39
-0.30105427 -0.34002572 1.023 5.8083289e-39
-0.31960005 -0.33708575 1.0200001 6.6366364e-39
-0.31859142 -0.33807713 1.023 6.5444366e-39
-0.31664285 -0.33807713 1.023 6.5437219e-39
-0.31561714 -0.33906856 1.026 6.359695e-39
-0.31366286 -0.33906856 1.026 6.1760212e-39
-0.31170857 -0.33906856 1.026 6.2682126e-39
-0.30975428 -0.33906856 1.026 6.4518878e-39
-0.30779999 -0.33906856 1.026 6.4518934e-39
-0.30584571 -0.33906856 1.026 6.4518906e-39
-0.30300286 -0.33807713 1.023 5.9916355e-39
-0.30105427 -0.33807713 1.023 5.531742e-39
-0.31960005 -0.33514288 1.0200001 6.6370021e-39
-0.31765717 -0.33514288 1.0200001 6.544445e-39
-0.31664285 -0.33612856 1.023 6.5444464e-39
-0.31469426 -0.33612856 1.023 6.4515361e-39
-0.31366286 -0.33711427 1.026 6.4515333e-39
-0.31170857 -0.33711427 1.026 6.5440848e-39
-0.30975428 -0.33711427 1.026 6.7284747e-39
-0.30689999 -0.33612856 1.023 6.8192354e-39
-0.30495143 -0.33612856 1.023 7.0029022e-39
-0.30300286 -0.33612856 1.023 6.9085528e-39
-0.30105427 -0.33612856 1.023 6.7245216e-39
-0.2991057 -0.33612856 1.023 7.5496062e-39
-0.29715717 -0.33612856 1.023 8.3746879e-39
-0.31960005 -0.33320004 1.0200001 6.6370021e-39
-0.31765717 -0.33320004 1.0200001 6.5448051e-39
-0.3157143 -0.33320004 1.0200001 6.5444464e-39
-0.31469426 -0.33418 1.023 6.6355658e-39
-0.31274572 -0.33418 1.023 6.7266824e-39
-0.30975428 -0.33515999 1.026 7.0032609e-39
-0.30689999 -0.33418 1.023 7.2784059e-39
-0.30495143 -0.33418 1.023 7.6439472e-39
-0.30300286 -0.33418 1.023 7.8258189e-39
-0.30105427 -0.33418 1.023 8.005897e-39
-0.29822862 -0.33320004 1.0200001 9.1961669e-39
-0.29628575 -0.33320004 1.0200001 1.0388588e-38
-0.31672287 -0.33028287 1.0170001 6.7284775e-39
-0.31478575 -0.33028287 1.0170001 6.7284775e-39
-0.31377146 -0.33125716 1.0200001 6.8185207e-39
-0.31274572 -0.3322314 1.023 6.9103548e-39
-0.30975428 -0.3332057 1.026 7.4610021e-39
-0.30495143 -0.3322314 1.023 8.4665122e-39
-0.30300286 -0.3322314 1.023 9.0142868e-39
-0.30017143 -0.33125716 1.0200001 9.6538982e-39
-0.29822862 -0.33125716 1.0200001 1.0294227e-38
-0.29628575 -0.33125716 1.0200001 1.0934556e-38
-0.31274572 -0.33028284 1.023 7.0936713e-39
-0.30584571 -0.33125141 1.026 9.2869122e-39
-0.31485429 -0.32448286 1.011 6.7284789e-39
-0.31138095 -0.32287809 1.006 6.5440905e-39
-0.30946478 -0.32287809 1.006 6.9103576e-39
-0.31274572 -0.3283343 1.023 7.3691834e-39
-0.31678 -0.32255715 1.011 7.0043497e-39
-0.31329715 -0.32096192 1.006 6.6366448e-39
-0.31045237 -0.32000476 1.003 6.2682224e-39
-0.30854189 -0.32000476 1.003 6.9110681e-39
-0.32736 -0.31968001 1.008 6.452255e-39
-0.32543999 -0.31968001 1.008 6.6362791e-39
-0.32448286 -0.32063144 1.011 6.820313e-39
-0.32255715 -0.32063144 1.011 6.6362889e-39
-0.31678 -0.32063144 1.011 6.8206773e-39
-0.31329715 -0.31904572 1.006 6.8195997e-39
-0.31045237 -0.31809428 1.003 6.8185165e-39
-0.30854189 -0.31809428 1.003 7.3673701e-39
-0.32862666 -0.31712955 1.006 6.1756723e-39
-0.32736 -0.31776002 1.008 6.2685812e-39
-0.32543999 -0.31776002 1.008 6.5444436e-39
-0.32448286 -0.31870574 1.011 6.9121499e-39
-0.32255715 -0.31870574 1.011 6.5440975e-39
-0.32671049 -0.31521332 1.006 6.4526081e-39
-0.32479432 -0.31521332 1.006 6.6362805e-39
-0.32352 -0.31584001 1.008 6.8203172e-39
-0.32255715 -0.31678 1.011 6.6362945e-39
-0.32671049 -0.31329715 1.006 6.6366406e-39
-0.32479432 -0.31329715 1.006 6.7284789e-39
-0.32352 -0.31391999 1.008 6.82032e-39
-0.32255715 -0.31485429 1.011 6.7284915e-39
-0.32255715 -0.31292859 1.011 6.9121667e-39
