# .PCD v0.7 - Point Cloud Data file format
VERSION 0.7
FIELDS x y z rgb
SIZE 4 4 4 4
TYPE F F F F
COUNT 1 1 1 1
WIDTH 953
HEIGHT 1
VIEWPOINT 0 0 0 1 0 0 0
POINTS 953
DATA ascii
0.17951429 0.16774286 0.61800003 9.2764655e-39
0.18039905 0.16747144 0.61700004 9.5519734e-39
0.1815743 0.16747144 0.61700004 9.6438103e-39
0.18274952 0.16747144 0.61700004 9.827124e-39
0.17626762 0.16919333 0.61900002 9.2768242e-39
0.17716001 0.16892001 0.61800003 9.368301e-39
0.17804858 0.16864668 0.61700004 9.551972e-39
0.17922382 0.16864668 0.61700004 9.8274799e-39
0.18010668 0.16837335 0.61600006 1.0102985e-38
0.18128002 0.16837335 0.61600006 1.0194462e-38
0.18215714 0.1681 0.61500001 1.0378131e-38
0.18332858 0.1681 0.61500001 1.0469607e-38
0.18450001 0.1681 0.61500001 1.0469609e-38
0.18684286 0.1681 0.61500001 1.0469619e-38
0.1880143 0.1681 0.61500001 1.0378148e-38
0.18918572 0.1681 0.61500001 1.0286692e-38
0.19066668 0.16837335 0.61600006 1.0104837e-38
0.19184002 0.16837335 0.61600006 9.9233217e-39
0.19301334 0.16837335 0.61600006 9.7504155e-39
0.17569812 0.16982192 0.61700004 9.9196713e-39
0.17687334 0.16982192 0.61700004 1.0010789e-38
0.17804858 0.16982192 0.61700004 1.0102625e-38
0.17922382 0.16982192 0.61700004 1.0378131e-38
0.18010668 0.16954668 0.61600006 1.0653638e-38
0.18098572 0.16927142 0.61500001 1.0837309e-38
0.18186095 0.16899619 0.61400002 1.1020978e-38
0.18303049 0.16899619 0.61400002 1.1112455e-38
0.1842 0.16899619 0.61400002 1.1204292e-38
0.18536952 0.16899619 0.61400002 1.1112458e-38
0.18653905 0.16899619 0.61400002 1.1020625e-38
0.18770857 0.16899619 0.61400002 1.0928793e-38
0.18918572 0.16927142 0.61500001 1.0928804e-38
0.19035713 0.16927142 0.61500001 1.0745504e-38
0.19152856 0.16927142 0.61500001 1.0561837e-38
0.1927 0.16927142 0.61500001 1.0378531e-38
0.19387142 0.16927142 0.61500001 1.020062e-38
0.19536002 0.16954668 0.61600006 9.9312334e-39
0.19653335 0.16954668 0.61600006 9.6657855e-39
0.17541336 0.17072001 0.61600006 1.0287371e-38
0.17658667 0.17072001 0.61600006 1.037813e-38
0.17747143 0.17044285 0.61500001 1.0469965e-38
0.17835239 0.17016572 0.61400002 1.0653636e-38
0.1795219 0.17016572 0.61400002 1.0929502e-38
0.18069144 0.17016572 0.61400002 1.102098e-38
0.18156476 0.16988859 0.61300004 1.1204649e-38
0.1827324 0.16988859 0.61300004 1.1296126e-38
0.18390001 0.16988859 0.61300004 1.1479797e-38
0.18506762 0.16988859 0.61300004 1.1387962e-38
0.18653905 0.17016572 0.61400002 1.1387962e-38
0.18740286 0.16988859 0.61300004 1.1387962e-38
0.18918572 0.17044285 0.61500001 1.1296128e-38
0.19035713 0.17044285 0.61500001 1.1204293e-38
0.19152856 0.17044285 0.61500001 1.1112465e-38
0.1927 0.17044285 0.61500001 1.0929161e-38
0.19387142 0.17044285 0.61500001 1.0746592e-38
0.19536002 0.17072001 0.61600006 1.0475775e-38
0.19653335 0.17072001 0.61600006 1.0208534e-38
0.19770668 0.17072001 0.61600006 9.7572622e-39
0.17541336 0.17189336 0.61600006 1.0653995e-38
0.1763 0.17161429 0.61500001 1.0745472e-38
0.17689429 0.1710562 0.61300004 1.0837307e-38
0.17806192 0.1710562 0.61300004 1.1020621e-38
0.17922953 0.1710562 0.61300004 1.120501e-38
0.18039715 0.1710562 0.61300004 1.1296845e-38
0.18126859 0.17077716 0.61200005 1.1480156e-38
0.18213618 0.17049809 0.611 1.1571633e-38
0.18360001 0.17077716 0.61200005 1.1755304e-38
0.1844638 0.17049809 0.611 1.1755662e-38
0.18593144 0.17077716 0.61200005 1.1847139e-38
0.18709715 0.17077716 0.61200005 1.1755304e-38
0.18826286 0.17077716 0.61200005 1.1755304e-38
0.18973809 0.1710562 0.61300004 1.166347e-38
0.19090572 0.1710562 0.61300004 1.1663472e-38
0.19238667 0.17133525 0.61400002 1.1479806e-38
0.19355619 0.17133525 0.61400002 1.129615e-38
0.19504285 0.17161429 0.61500001 1.1020659e-38
0.19653335 0.17189336 0.61600006 1.0749834e-38
0.19770668 0.17189336 0.61600006 1.029534e-38
0.17424001 0.17306668 0.61600006 9.6438047e-39
0.17512858 0.17278571 0.61500001 1.0653995e-38
0.17572668 0.17222382 0.61300004 1.0837307e-38
0.17660573 0.17194286 0.61200005 1.102098e-38
0.17777145 0.17194286 0.61200005 1.1112458e-38
0.17893715 0.17194286 0.61200005 1.1297205e-38
0.17980857 0.1716619 0.611 1.1480159e-38
0.18097238 0.1716619 0.611 1.1571993e-38
0.18213618 0.1716619 0.611 1.1663827e-38
0.18270001 0.17110001 0.60900003 1.1847857e-38
0.18386 0.17110001 0.60900003 1.1939333e-38
0.18502001 0.17110001 0.60900003 1.2031169e-38
0.18618001 0.17110001 0.60900003 1.203081e-38
0.18734001 0.17110001 0.60900003 1.203081e-38
0.18911904 0.1716619 0.611 1.1938975e-38
0.19059429 0.17194286 0.61200005 1.1938975e-38
0.19176002 0.17194286 0.61200005 1.1847139e-38
0.19324097 0.17222382 0.61300004 1.1755308e-38
0.19472572 0.17250477 0.61400002 1.1479806e-38
0.19621429 0.17278571 0.61500001 1.1205399e-38
0.19706477 0.17250477 0.61400002 1.0842027e-38
0.19823429 0.17250477 0.61400002 1.0480084e-38
0.17250477 0.17367429 0.61400002 1.0745472e-38
0.17339143 0.17339143 0.61300004 1.0745472e-38
0.17455906 0.17339143 0.61300004 1.0745472e-38
0.17544001 0.17310858 0.61200005 1.0929143e-38
0.17631714 0.17282571 0.611 1.1204649e-38
0.17748095 0.17282571 0.611 1.1296486e-38
0.17864476 0.17282571 0.611 1.1480157e-38
0.17980857 0.17282571 0.611 1.1571993e-38
0.18038 0.17226 0.60900003 1.1755662e-38
0.18154 0.17226 0.60900003 1.1847857e-38
0.18270001 0.17226 0.60900003 1.1939333e-38
0.18355811 0.17197716 0.60800004 1.2123004e-38
0.18471619 0.17197716 0.60800004 1.2306317e-38
0.1858743 0.17197716 0.60800004 1.2306317e-38
0.1870324 0.17197716 0.60800004 1.2398152e-38
0.18819048 0.17197716 0.60800004 1.2306317e-38
0.19028285 0.17282571 0.611 1.2214481e-38
0.19144666 0.17282571 0.611 1.2214481e-38
0.19292574 0.17310858 0.61200005 1.2214483e-38
0.19440858 0.17339143 0.61300004 1.1938979e-38
0.19589524 0.17367429 0.61400002 1.1755679e-38
0.19674382 0.17339143 0.61300004 1.138871e-38
0.19855714 0.17395714 0.61500001 1.1116454e-38
0.19972856 0.17395714 0.61500001 1.0660888e-38
0.17194286 0.17427431 0.61200005 1.0286294e-38
0.17310858 0.17427431 0.61200005 1.0561801e-38
0.17398952 0.17398952 0.611 1.0836949e-38
0.17515333 0.17398952 0.611 1.102062e-38
0.17574 0.17342 0.60900003 1.1204649e-38
0.17690001 0.17342 0.60900003 1.1387962e-38
0.17864476 0.17398952 0.611 1.1479797e-38
0.17892572 0.17313524 0.60800004 1.1571633e-38
0.18008383 0.17313524 0.60800004 1.1755304e-38
0.18124191 0.17313524 0.60800004 1.1847139e-38
0.18240002 0.17313524 0.60800004 1.1938975e-38
0.18325621 0.17285049 0.60700005 1.2122647e-38
0.18441239 0.17285049 0.60700005 1.2306317e-38
0.18556859 0.17285049 0.60700005 1.2398152e-38
0.18672478 0.17285049 0.60700005 1.2489988e-38
0.18788098 0.17285049 0.60700005 1.2489988e-38
0.18934858 0.17313524 0.60800004 1.2398152e-38
0.19050668 0.17313524 0.60800004 1.2398152e-38
0.19198 0.17342 0.60900003 1.2398152e-38
0.19409144 0.17427431 0.61200005 1.2214481e-38
0.19525716 0.17427431 0.61200005 1.2030813e-38
0.19642287 0.17427431 0.61200005 1.1755668e-38
0.19758859 0.17427431 0.61200005 1.1572382e-38
0.19907905 0.17455906 0.61300004 1.1116461e-38
0.20024668 0.17455906 0.61300004 1.0664131e-38
0.16994001 0.17458001 0.60900003 9.3675807e-39
0.1716619 0.17515333 0.611 9.8267582e-39
0.17282571 0.17515333 0.611 1.037813e-38
0.17398952 0.17515333 0.611 1.102062e-38
0.17458001 0.17458001 0.60900003 1.1112455e-38
0.17574 0.17458001 0.60900003 1.1296126e-38
0.17660955 0.17429334 0.60800004 1.1387962e-38
0.17776762 0.17429334 0.60800004 1.1571633e-38
0.17863144 0.17400669 0.60700005 1.1663468e-38
0.17978764 0.17400669 0.60700005 1.1755304e-38
0.18064572 0.17372 0.60600001 1.1847139e-38
0.18179999 0.17372 0.60600001 1.203081e-38
0.18295428 0.17372 0.60600001 1.2214481e-38
0.18410857 0.17372 0.60600001 1.2398152e-38
0.18757142 0.17372 0.60600001 1.2673659e-38
0.18903716 0.17400669 0.60700005 1.2673659e-38
0.19019336 0.17400669 0.60700005 1.2581823e-38
0.19166477 0.17429334 0.60800004 1.2581823e-38
0.19314002 0.17458001 0.60900003 1.2489988e-38
0.19493809 0.17515333 0.611 1.2398154e-38
0.1961019 0.17515333 0.611 1.2214484e-38
0.19726571 0.17515333 0.611 1.203083e-38
0.1987543 0.17544001 0.61200005 1.1572028e-38
0.20024668 0.17572668 0.61300004 1.1210458e-38
0.2014143 0.17572668 0.61300004 1.0576253e-38
0.16878001 0.17574 0.60900003 9.276104e-39
0.16966096 0.17545144 0.60800004 9.6430872e-39
0.17110001 0.17574 0.60900003 1.0010429e-38
0.17226 0.17574 0.60900003 1.0469607e-38
0.17342 0.17574 0.60900003 1.0928784e-38
0.17429334 0.17545144 0.60800004 1.102062e-38
0.17516288 0.17516288 0.60700005 1.1204291e-38
0.17631905 0.17516288 0.60700005 1.1387962e-38
0.17718287 0.17487428 0.60600001 1.1571633e-38
0.17833714 0.17487428 0.60600001 1.166347e-38
0.17919524 0.17458571 0.60500002 1.1847139e-38
0.18034762 0.17458571 0.60500002 1.1938975e-38
0.1815 0.17458571 0.60500002 1.203081e-38
0.18610953 0.17458571 0.60500002 1.285733e-38
0.18757142 0.17487428 0.60600001 1.285733e-38
0.18903716 0.17516288 0.60700005 1.285733e-38
0.19019336 0.17516288 0.60700005 1.2765494e-38
0.19134954 0.17516288 0.60700005 1.2765494e-38
0.19282287 0.17545144 0.60800004 1.2673659e-38
0.19430001 0.17574 0.60900003 1.2581823e-38
0.19546001 0.17574 0.60900003 1.2398152e-38
0.19662 0.17574 0.60900003 1.2214488e-38
0.19778 0.17574 0.60900003 1.1847153e-38
0.19992001 0.17660573 0.61200005 1.1573115e-38
0.2014143 0.17689429 0.61300004 1.1028234e-38
0.20258191 0.17689429 0.61300004 1.0489783e-38
0.16878001 0.17690001 0.60900003 9.6430872e-39
0.16966096 0.17660955 0.60800004 9.9185937e-39
0.17081906 0.17660955 0.60800004 1.01941e-38
0.17226 0.17690001 0.60900003 1.0469607e-38
0.17313524 0.17660955 0.60800004 1.0836949e-38
0.17400669 0.17631905 0.60700005 1.102062e-38
0.17487428 0.17602856 0.60600001 1.1204291e-38
0.17602856 0.17602856 0.60600001 1.1387962e-38
0.17718287 0.17602856 0.60600001 1.1571633e-38
0.17804286 0.1757381 0.60500002 1.1755305e-38
0.17919524 0.1757381 0.60500002 1.1938975e-38
0.18034762 0.1757381 0.60500002 1.203081e-38
0.18465143 0.17544763 0.60400003 1.2765494e-38
0.18610953 0.1757381 0.60500002 1.3041001e-38
0.18726191 0.1757381 0.60500002 1.3041001e-38
0.18872571 0.17602856 0.60600001 1.3041001e-38
0.19019336 0.17631905 0.60700005 1.2949165e-38
0.19134954 0.17631905 0.60700005 1.2949165e-38
0.19250572 0.17631905 0.60700005 1.285733e-38
0.19398096 0.17660955 0.60800004 1.285733e-38
0.19513905 0.17660955 0.60800004 1.2581823e-38
0.19629715 0.17660955 0.60800004 1.2398155e-38
0.19778 0.17690001 0.60900003 1.2122653e-38
0.19959334 0.17748095 0.611 1.1939367e-38
0.20108573 0.17777145 0.61200005 1.1480575e-38
0.20258191 0.17806192 0.61300004 1.1032173e-38
0.20374954 0.17806192 0.61300004 1.0126388e-38
0.16850287 0.17776762 0.60800004 9.459775e-39
0.16966096 0.17776762 0.60800004 9.7349227e-39
0.17081906 0.17776762 0.60800004 1.0102265e-38
0.17197716 0.17776762 0.60800004 1.0469607e-38
0.17256571 0.17718287 0.60600001 1.0745113e-38
0.17372 0.17718287 0.60600001 1.0928786e-38
0.17458571 0.17689048 0.60500002 1.1204291e-38
0.1757381 0.17689048 0.60500002 1.1296126e-38
0.17689048 0.17689048 0.60500002 1.1479797e-38
0.17804286 0.17689048 0.60500002 1.1847141e-38
0.17889905 0.1765981 0.60400003 1.2122646e-38
0.18004954 0.1765981 0.60400003 1.2306317e-38
0.18120001 0.1765981 0.60400003 1.2398152e-38
0.18235049 0.1765981 0.60400003 1.2581823e-38
0.18350096 0.1765981 0.60400003 1.285733e-38
0.18465143 0.1765981 0.60400003 1.3132836e-38
0.18580191 0.1765981 0.60400003 1.3500178e-38
0.18726191 0.17689048 0.60500002 1.3316507e-38
0.18872571 0.17718287 0.60600001 1.322503e-38
0.18988 0.17718287 0.60600001 1.3132836e-38
0.19134954 0.17747524 0.60700005 1.3041001e-38
0.19250572 0.17747524 0.60700005 1.3041001e-38
0.19366191 0.17747524 0.60700005 1.3041001e-38
0.19513905 0.17776762 0.60800004 1.285733e-38
0.19629715 0.17776762 0.60800004 1.2673659e-38
0.19745526 0.17776762 0.60800004 1.2398152e-38
0.19894001 0.17806001 0.60900003 1.2122665e-38
0.20075715 0.17864476 0.611 1.1663868e-38
0.20225143 0.17893715 0.61200005 1.1299416e-38
0.20341715 0.17893715 0.61200005 1.0577668e-38
0.16850287 0.17892572 0.60800004 9.2757452e-39
0.16938192 0.17863144 0.60700005 9.6430872e-39
0.17053811 0.17863144 0.60700005 1.0102265e-38
0.17141142 0.17833714 0.60600001 1.0377771e-38
0.17228095 0.17804286 0.60500002 1.0745113e-38
0.17314668 0.17774859 0.60400003 1.0928784e-38
0.17429715 0.17774859 0.60400003 1.1204296e-38
0.17544763 0.17774859 0.60400003 1.1296137e-38
0.1765981 0.17774859 0.60400003 1.1479807e-38
0.17774859 0.17774859 0.60400003 1.1938983e-38
0.18120001 0.17774859 0.60400003 1.2765497e-38
0.18235049 0.17774859 0.60400003 1.2949166e-38
0.18350096 0.17774859 0.60400003 1.3133914e-38
0.18465143 0.17774859 0.60400003 1.350233e-38
0.18580191 0.17774859 0.60400003 1.3960433e-38
0.18726191 0.17804286 0.60500002 1.3684209e-38
0.18872571 0.17833714 0.60600001 1.3408701e-38
0.18988 0.17833714 0.60600001 1.3316866e-38
0.19103429 0.17833714 0.60600001 1.3224672e-38
0.19218858 0.17833714 0.60600001 1.3224673e-38
0.19366191 0.17863144 0.60700005 1.3316507e-38
0.19481811 0.17863144 0.60700005 1.3132836e-38
0.19597431 0.17863144 0.60700005 1.3041001e-38
0.19713049 0.17863144 0.60700005 1.2673659e-38
0.19861333 0.17892572 0.60800004 1.2398163e-38
0.20075715 0.17980857 0.611 1.1938998e-38
0.20192094 0.17980857 0.611 1.1573475e-38
0.20341715 0.18010287 0.61200005 1.1029305e-38
0.20458287 0.18010287 0.61200005 1.049373e-38
0.16850287 0.18008383 0.60800004 9.2757452e-39
0.16938192 0.17978764 0.60700005 9.6430872e-39
0.17053811 0.17978764 0.60700005 1.0010429e-38
0.17141142 0.17949143 0.60600001 1.0377771e-38
0.17228095 0.17919524 0.60500002 1.0836949e-38
0.17314668 0.17889905 0.60400003 1.0928784e-38
0.17429715 0.17889905 0.60400003 1.1112466e-38
0.17544763 0.17889905 0.60400003 1.1939356e-38
0.17630573 0.17860287 0.60300004 1.2674394e-38
0.17745429 0.17860287 0.60300004 1.2765868e-38
0.18235049 0.17889905 0.60400003 1.4331365e-38
0.18695238 0.17889905 0.60400003 1.4422125e-38
0.18841429 0.17919524 0.60500002 1.442248e-38
0.18956667 0.17919524 0.60500002 1.4237373e-38
0.19071905 0.17919524 0.60500002 1.4052627e-38
0.19218858 0.17949143 0.60600001 1.3776406e-38
0.19334285 0.17949143 0.60600001 1.3500179e-38
0.19481811 0.17978764 0.60700005 1.3316507e-38
0.19597431 0.17978764 0.60700005 1.3224672e-38
0.19680572 0.17949143 0.60600001 1.285733e-38
0.19796 0.17949143 0.60600001 1.2581827e-38
0.19911429 0.17949143 0.60600001 1.221449e-38
0.20092954 0.18008383 0.60800004 1.1847894e-38
0.20308475 0.18097238 0.611 1.1484529e-38
0.20424856 0.18097238 0.611 1.1039714e-38
0.16822572 0.18094382 0.60700005 9.2757452e-39
0.16938192 0.18094382 0.60700005 9.6430872e-39
0.17025715 0.18064572 0.60600001 1.0010429e-38
0.17112859 0.18034762 0.60500002 1.0469607e-38
0.17199619 0.18004954 0.60400003 1.0928784e-38
0.17314668 0.18004954 0.60400003 1.102062e-38
0.17429715 0.18004954 0.60400003 1.1112464e-38
0.17515714 0.17975144 0.60300004 1.2504712e-38
0.17630573 0.17975144 0.60300004 1.3974798e-38
0.17745429 0.17975144 0.60300004 1.3608172e-38
0.18779144 0.17975144 0.60300004 1.55396e-38
0.18925333 0.18004954 0.60400003 1.5263708e-38
0.19040382 0.18004954 0.60400003 1.4980668e-38
0.19155429 0.18004954 0.60400003 1.4330646e-38
0.19878572 0.18034762 0.60500002 1.2489992e-38
0.20026857 0.18064572 0.60600001 1.2214859e-38
0.20208763 0.18124191 0.60800004 1.1940086e-38
0.20324573 0.18124191 0.60800004 1.1675016e-38
0.16822572 0.18210001 0.60700005 9.2757452e-39
0.16938192 0.18210001 0.60700005 9.6430872e-39
0.17025715 0.18179999 0.60600001 1.0010429e-38
0.17084573 0.18120001 0.60400003 1.0469607e-38
0.17199619 0.18120001 0.60400003 1.0928784e-38
0.17286 0.18090001 0.60300004 1.102062e-38
0.17400858 0.18090001 0.60300004 1.1112461e-38
0.17486668 0.18060002 0.60200006 1.3153296e-38
0.17601334 0.18060002 0.60200006 1.5180495e-38
0.17716002 0.18060002 0.60200006 1.4716656e-38
0.18748002 0.18060002 0.60200006 1.702406e-38
0.18894 0.18090001 0.60300004 1.6558375e-38
0.19008859 0.18090001 0.60300004 1.6092739e-38
0.19155429 0.18120001 0.60400003 1.5351956e-38
0.19238573 0.18090001 0.60300004 1.4611531e-38
0.19960763 0.18120001 0.60400003 1.2306317e-38
0.2007581 0.18120001 0.60400003 1.1939335e-38
0.20190859 0.18120001 0.60400003 1.1667472e-38
0.16822572 0.18325621 0.60700005 9.2757452e-39
0.16910285 0.18295428 0.60600001 9.6430872e-39
0.16997619 0.18265238 0.60500002 1.0102265e-38
0.17084573 0.18235049 0.60400003 1.0561442e-38
0.17171144 0.18204859 0.60300004 1.102062e-38
0.17286 0.18204859 0.60300004 1.102062e-38
0.17400858 0.18204859 0.60300004 1.1112475e-38
0.17486668 0.18174668 0.60200006 1.3710436e-38
0.17572096 0.18144476 0.60100001 1.6375107e-38
0.17686571 0.18144476 0.60100001 1.5825536e-38
0.17830668 0.18174668 0.60200006 1.5350916e-38
0.18977335 0.18174668 0.60200006 1.7200545e-38
0.19123715 0.18204859 0.60300004 1.6276063e-38
0.19238573 0.18204859 0.60300004 1.5444162e-38
0.1935343 0.18204859 0.60300004 1.4888125e-38
0.19730668 0.18235049 0.60400003 1.3316508e-38
0.19845715 0.18235049 0.60400003 1.285733e-38
0.19960763 0.18235049 0.60400003 1.2489992e-38
0.2007581 0.18235049 0.60400003 1.203082e-38
0.20190859 0.18235049 0.60400003 1.1665674e-38
0.16822572 0.18441239 0.60700005 9.2757452e-39
0.16910285 0.18410857 0.60600001 9.6430872e-39
0.16969524 0.18350096 0.60400003 1.0010429e-38
0.17056288 0.18319716 0.60300004 1.0469608e-38
0.17171144 0.18319716 0.60300004 1.0929143e-38
0.17286 0.18319716 0.60300004 1.0928784e-38
0.17400858 0.18319716 0.60300004 1.1020653e-38
0.17486668 0.18289335 0.60200006 1.3336665e-38
0.17572096 0.18258953 0.60100001 1.5646913e-38
0.17657143 0.18228573 0.60000002 1.5271332e-38
0.17801048 0.18258953 0.60100001 1.4898939e-38
0.17915525 0.18258953 0.60100001 1.4808869e-38
0.18831334 0.18258953 0.60100001 1.7391846e-38
0.18945809 0.18258953 0.60100001 1.6930819e-38
0.19092001 0.18289335 0.60200006 1.6278228e-38
0.19206668 0.18289335 0.60200006 1.563502e-38
0.1935343 0.18319716 0.60300004 1.5072526e-38
0.19468288 0.18319716 0.60300004 1.4520787e-38
0.19583145 0.18319716 0.60300004 1.3959723e-38
0.19730668 0.18350096 0.60400003 1.3408347e-38
0.19812858 0.18319716 0.60300004 1.285733e-38
0.19960763 0.18350096 0.60400003 1.2398162e-38
0.2007581 0.18350096 0.60400003 1.203083e-38
0.20190859 0.18350096 0.60400003 1.1572399e-38
0.20305905 0.18350096 0.60400003 1.094429e-38
0.16794857 0.18526286 0.60600001 9.2757452e-39
0.16882381 0.18495715 0.60500002 9.5512517e-39
0.16969524 0.18465143 0.60400003 9.9185937e-39
0.17056288 0.18434574 0.60300004 1.0377773e-38
0.17171144 0.18434574 0.60300004 1.0836953e-38
0.17286 0.18434574 0.60300004 1.0928793e-38
0.17400858 0.18434574 0.60300004 1.1021368e-38
0.17486668 0.18404001 0.60200006 1.2963208e-38
0.17572096 0.18373428 0.60100001 1.4896069e-38
0.17657143 0.18342857 0.60000002 1.4717073e-38
0.17801048 0.18373428 0.60100001 1.4528363e-38
0.17915525 0.18373428 0.60100001 1.4616594e-38
0.17999999 0.18342857 0.60000002 1.4812502e-38
0.18114287 0.18342857 0.60000002 1.6111515e-38
0.18228573 0.18342857 0.60000002 1.7397562e-38
0.18342857 0.18342857 0.60000002 1.6923669e-38
0.18487905 0.18373428 0.60100001 1.6558117e-38
0.1857143 0.18342857 0.60000002 1.6837925e-38
0.18685715 0.18342857 0.60000002 1.7210655e-38
0.18831334 0.18373428 0.60100001 1.6932645e-38
0.18945809 0.18373428 0.60100001 1.6743555e-38
0.19060287 0.18373428 0.60100001 1.6280752e-38
0.19206668 0.18404001 0.60200006 1.5911972e-38
0.1935343 0.18434574 0.60300004 1.5257284e-38
0.19468288 0.18434574 0.60300004 1.4608681e-38
0.19583145 0.18434574 0.60300004 1.4052271e-38
0.19698001 0.18434574 0.60300004 1.3500179e-38
0.19812858 0.18434574 0.60300004 1.2949165e-38
0.19960763 0.18465143 0.60400003 1.2398161e-38
0.2007581 0.18465143 0.60400003 1.1938991e-38
0.20190859 0.18465143 0.60400003 1.1573475e-38
0.20305905 0.18465143 0.60400003 1.0937475e-38
0.16854477 0.18580191 0.60400003 9.5512517e-39
0.16969524 0.18580191 0.60400003 9.9185937e-39
0.17056288 0.18549429 0.60300004 1.0377773e-38
0.17171144 0.18549429 0.60300004 1.0836958e-38
0.17286 0.18549429 0.60300004 1.1112473e-38
0.17400858 0.18549429 0.60300004 1.1389423e-38
0.17486668 0.18518668 0.60200006 1.2683381e-38
0.17572096 0.18487905 0.60100001 1.3979132e-38
0.17657143 0.18457143 0.60000002 1.3976631e-38
0.17801048 0.18487905 0.60100001 1.3974115e-38
0.17915525 0.18487905 0.60100001 1.4715611e-38
0.17999999 0.18457143 0.60000002 1.5548975e-38
0.18114287 0.18457143 0.60000002 1.619544e-38
0.18228573 0.18457143 0.60000002 1.6933712e-38
0.18342857 0.18457143 0.60000002 1.673964e-38
0.18457143 0.18457143 0.60000002 1.6648515e-38
0.1857143 0.18457143 0.60000002 1.6840071e-38
0.18685715 0.18457143 0.60000002 1.7117728e-38
0.18831334 0.18487905 0.60100001 1.6744286e-38
0.18945809 0.18487905 0.60100001 1.6464814e-38
0.19060287 0.18487905 0.60100001 1.6189288e-38
0.19174762 0.18487905 0.60100001 1.5913779e-38
0.19321336 0.18518668 0.60200006 1.4975691e-38
0.19468288 0.18549429 0.60300004 1.4054083e-38
0.19583145 0.18549429 0.60300004 1.3684567e-38
0.19698001 0.18549429 0.60300004 1.3408343e-38
0.19812858 0.18549429 0.60300004 1.2949166e-38
0.19960763 0.18580191 0.60400003 1.2489996e-38
0.2007581 0.18580191 0.60400003 1.2122661e-38
0.20190859 0.18580191 0.60400003 1.1758223e-38
0.20339523 0.18610953 0.60500002 1.1121866e-38
0.20454763 0.18610953 0.60500002 1.0401911e-38
0.16854477 0.18695238 0.60400003 9.5512517e-39
0.16969524 0.18695238 0.60400003 1.0010429e-38
0.17056288 0.18664287 0.60300004 1.0469607e-38
0.17171144 0.18664287 0.60300004 1.0928788e-38
0.17286 0.18664287 0.60300004 1.1296495e-38
0.17400858 0.18664287 0.60300004 1.1756395e-38
0.17486668 0.18633336 0.60200006 1.2403556e-38
0.17572096 0.1860238 0.60100001 1.3137169e-38
0.17657143 0.1857143 0.60000002 1.3227934e-38
0.17771429 0.1857143 0.60000002 1.3417717e-38
0.17885715 0.1857143 0.60000002 1.4816069e-38
0.17999999 0.1857143 0.60000002 1.6285093e-38
0.18114287 0.1857143 0.60000002 1.6376944e-38
0.18198191 0.18540478 0.59900004 1.6466277e-38
0.18342857 0.1857143 0.60000002 1.6647806e-38
0.18457143 0.1857143 0.60000002 1.6836859e-38
0.1857143 0.1857143 0.60000002 1.6934078e-38
0.18685715 0.1857143 0.60000002 1.7024096e-38
0.18800001 0.1857143 0.60000002 1.6647762e-38
0.18914287 0.1857143 0.60000002 1.6281844e-38
0.19028571 0.1857143 0.60000002 1.6099598e-38
0.19174762 0.1860238 0.60100001 1.6001294e-38
0.19289239 0.1860238 0.60100001 1.4785897e-38
0.19436002 0.18633336 0.60200006 1.3592025e-38
0.19583145 0.18664287 0.60300004 1.3408701e-38
0.19698001 0.18664287 0.60300004 1.3316507e-38
0.19812858 0.18664287 0.60300004 1.2949165e-38
0.19960763 0.18695238 0.60400003 1.2581829e-38
0.2007581 0.18695238 0.60400003 1.2306328e-38
0.20190859 0.18695238 0.60400003 1.2033723e-38
0.20339523 0.18726191 0.60500002 1.1306605e-38
0.20454763 0.18726191 0.60500002 1.0584138e-38
0.16854477 0.18810287 0.60400003 9.4594162e-39
0.16969524 0.18810287 0.60400003 9.8267582e-39
0.17056288 0.18779144 0.60300004 1.0285936e-38
0.17171144 0.18779144 0.60300004 1.0745113e-38
0.17286 0.18779144 0.60300004 1.1112457e-38
0.17400858 0.18779144 0.60300004 1.1572354e-38
0.17486668 0.18748002 0.60200006 1.2124806e-38
0.17572096 0.18716858 0.60100001 1.2677256e-38
0.17657143 0.18685715 0.60000002 1.2769453e-38
0.17771429 0.18685715 0.60000002 1.2861678e-38
0.17885715 0.18685715 0.60000002 1.4537348e-38
0.17999999 0.18685715 0.60000002 1.6197563e-38
0.18084095 0.18654573 0.59900004 1.6100348e-38
0.18198191 0.18654573 0.59900004 1.591203e-38
0.18312286 0.18654573 0.59900004 1.646593e-38
0.18457143 0.18685715 0.60000002 1.7028074e-38
0.1857143 0.18685715 0.60000002 1.7210682e-38
0.18654573 0.18654573 0.59900004 1.739e-38
0.18800001 0.18685715 0.60000002 1.6652759e-38
0.18914287 0.18685715 0.60000002 1.6007398e-38
0.19028571 0.18685715 0.60000002 1.563575e-38
0.19174762 0.18716858 0.60100001 1.526229e-38
0.19289239 0.18716858 0.60100001 1.4418533e-38
0.19403714 0.18716858 0.60100001 1.3592014e-38
0.19550668 0.18748002 0.60200006 1.3408343e-38
0.19698001 0.18779144 0.60300004 1.3132836e-38
0.19812858 0.18779144 0.60300004 1.285733e-38
0.19927715 0.18779144 0.60300004 1.2581826e-38
0.2007581 0.18810287 0.60400003 1.2306324e-38
0.20190859 0.18810287 0.60400003 1.2034075e-38
0.20305905 0.18810287 0.60400003 1.1306597e-38
0.20454763 0.18841429 0.60500002 1.0583052e-38
0.2057 0.18841429 0.60500002 9.4864263e-39
0.16854477 0.18925333 0.60400003 9.2757452e-39
0.1694143 0.18894 0.60300004 9.7349227e-39
0.17056288 0.18894 0.60300004 1.0102265e-38
0.17142668 0.18862668 0.60200006 1.0561442e-38
0.17257334 0.18862668 0.60200006 1.0928784e-38
0.17372002 0.18862668 0.60200006 1.1388323e-38
0.17457619 0.18831334 0.60100001 1.1756027e-38
0.17542858 0.18800001 0.60000002 1.2214852e-38
0.17657143 0.18800001 0.60000002 1.2306338e-38
0.17771429 0.18800001 0.60000002 1.2400334e-38
0.17885715 0.18800001 0.60000002 1.4258576e-38
0.17999999 0.18800001 0.60000002 1.6188932e-38
0.18114287 0.18800001 0.60000002 1.5823761e-38
0.18198191 0.18768668 0.59900004 1.5457149e-38
0.18312286 0.18768668 0.59900004 1.6376235e-38
0.18457143 0.18800001 0.60000002 1.7302492e-38
0.1857143 0.18800001 0.60000002 1.7490479e-38
0.18685715 0.18800001 0.60000002 1.7752303e-38
0.18800001 0.18800001 0.60000002 1.6732377e-38
0.18914287 0.18800001 0.60000002 1.5722545e-38
0.19028571 0.18800001 0.60000002 1.5172248e-38
0.19142859 0.18800001 0.60000002 1.4612258e-38
0.19289239 0.18831334 0.60100001 1.4143028e-38
0.19403714 0.18831334 0.60100001 1.3683849e-38
0.19550668 0.18862668 0.60200006 1.3316507e-38
0.19665335 0.18862668 0.60200006 1.3041001e-38
0.19812858 0.18894 0.60300004 1.285733e-38
0.19960763 0.18925333 0.60400003 1.2673664e-38
0.2007581 0.18925333 0.60400003 1.2306687e-38
0.20190859 0.18925333 0.60400003 1.2034797e-38
0.20339523 0.18956667 0.60500002 1.1306598e-38
0.20488572 0.18988 0.60600001 1.058341e-38
0.20603999 0.18988 0.60600001 9.3031112e-39
0.1694143 0.19008859 0.60300004 9.5512517e-39
0.17056288 0.19008859 0.60300004 9.9185937e-39
0.17142668 0.18977335 0.60200006 1.0285936e-38
0.17257334 0.18977335 0.60200006 1.0745113e-38
0.17372002 0.18977335 0.60200006 1.1112457e-38
0.17457619 0.18945809 0.60100001 1.14798e-38
0.17572096 0.18945809 0.60100001 1.1938991e-38
0.17657143 0.18914287 0.60000002 1.1939005e-38
0.17771429 0.18914287 0.60000002 1.2030827e-38
0.17885715 0.18914287 0.60000002 1.3420184e-38
0.17999999 0.18914287 0.60000002 1.4903216e-38
0.18084095 0.18882763 0.59900004 1.4622003e-38
0.18198191 0.18882763 0.59900004 1.4432961e-38
0.18312286 0.18882763 0.59900004 1.5173036e-38
0.18426381 0.18882763 0.59900004 1.5923871e-38
0.18540478 0.18882763 0.59900004 1.5825588e-38
0.18654573 0.18882763 0.59900004 1.5819078e-38
0.18800001 0.18914287 0.60000002 1.5356977e-38
0.18914287 0.18914287 0.60000002 1.489493e-38
0.19028571 0.18914287 0.60000002 1.4520413e-38
0.19142859 0.18914287 0.60000002 1.4238092e-38
0.19257143 0.18914287 0.60000002 1.3775687e-38
0.19403714 0.18945809 0.60100001 1.3408344e-38
0.19550668 0.18977335 0.60200006 1.3132836e-38
0.19698001 0.19008859 0.60300004 1.285733e-38
0.19812858 0.19008859 0.60300004 1.2673659e-38
0.19960763 0.19040382 0.60400003 1.2489996e-38
0.2007581 0.19040382 0.60400003 1.2123021e-38
0.20190859 0.19040382 0.60400003 1.1852205e-38
0.20339523 0.19071905 0.60500002 1.1124724e-38
0.20488572 0.19103429 0.60600001 1.0491934e-38
0.20603999 0.19103429 0.60600001 9.4867808e-39
0.1694143 0.19123715 0.60300004 9.4594162e-39
0.17056288 0.19123715 0.60300004 9.7349227e-39
0.17142668 0.19092001 0.60200006 1.0102265e-38
0.17257334 0.19092001 0.60200006 1.0469607e-38
0.17343143 0.19060287 0.60100001 1.0928784e-38
0.17457619 0.19060287 0.60100001 1.1296128e-38
0.17572096 0.19060287 0.60100001 1.1663477e-38
0.17657143 0.19028571 0.60000002 1.1663484e-38
0.17771429 0.19028571 0.60000002 1.1755313e-38
0.17885715 0.19028571 0.60000002 1.2674023e-38
0.17999999 0.19028571 0.60000002 1.3592392e-38
0.18084095 0.18996859 0.59900004 1.3500929e-38
0.18198191 0.18996859 0.59900004 1.3505598e-38
0.18312286 0.18996859 0.59900004 1.3969802e-38
0.18426381 0.18996859 0.59900004 1.4523691e-38
0.18540478 0.18996859 0.59900004 1.4251418e-38
0.18654573 0.18996859 0.59900004 1.3967999e-38
0.18768668 0.18996859 0.59900004 1.3960086e-38
0.18914287 0.19028571 0.60000002 1.4051914e-38
0.19028571 0.19028571 0.60000002 1.3960432e-38
0.19142859 0.19028571 0.60000002 1.386788e-38
0.19257143 0.19028571 0.60000002 1.3500179e-38
0.19371429 0.19028571 0.60000002 1.3224672e-38
0.19518191 0.19060287 0.60100001 1.2949165e-38
0.19665335 0.19092001 0.60200006 1.2765494e-38
0.19812858 0.19123715 0.60300004 1.2489988e-38
0.19927715 0.19123715 0.60300004 1.2306325e-38
0.2007581 0.19155429 0.60400003 1.193971e-38
0.20190859 0.19155429 0.60400003 1.1667818e-38
0.20339523 0.19187143 0.60500002 1.103504e-38
0.20488572 0.19218858 0.60600001 1.0400818e-38
0.20603999 0.19218858 0.60600001 9.6708133e-39
0.1694143 0.19238573 0.60300004 9.2757452e-39
0.17056288 0.19238573 0.60300004 9.6430872e-39
0.17142668 0.19206668 0.60200006 9.9185937e-39
0.17257334 0.19206668 0.60200006 1.0377771e-38
0.17343143 0.19174762 0.60100001 1.0745113e-38
0.17428571 0.19142859 0.60000002 1.1204291e-38
0.17542858 0.19142859 0.60000002 1.1571633e-38
0.17657143 0.19142859 0.60000002 1.166347e-38
0.17771429 0.19142859 0.60000002 1.1847143e-38
0.17885715 0.19142859 0.60000002 1.2489996e-38
0.17970002 0.19110952 0.59900004 1.3224676e-38
0.18084095 0.19110952 0.59900004 1.3224672e-38
0.18198191 0.19110952 0.59900004 1.3224672e-38
0.18312286 0.19110952 0.59900004 1.3500178e-38
0.18426381 0.19110952 0.59900004 1.3867521e-38
0.18540478 0.19110952 0.59900004 1.3683853e-38
0.18654573 0.19110952 0.59900004 1.3592028e-38
0.18800001 0.19142859 0.60000002 1.3592398e-38
0.18914287 0.19142859 0.60000002 1.368422e-38
0.19028571 0.19142859 0.60000002 1.3592015e-38
0.19142859 0.19142859 0.60000002 1.3500179e-38
0.19257143 0.19142859 0.60000002 1.3224673e-38
0.19371429 0.19142859 0.60000002 1.2949165e-38
0.19518191 0.19174762 0.60100001 1.2765494e-38
0.19665335 0.19206668 0.60200006 1.2581823e-38
0.19812858 0.19238573 0.60300004 1.2306317e-38
0.19927715 0.19238573 0.60300004 1.2123014e-38
0.20042573 0.19238573 0.60300004 1.1847876e-38
0.20190859 0.19270477 0.60400003 1.1483789e-38
0.20339523 0.19302382 0.60500002 1.0853523e-38
0.20454763 0.19302382 0.60500002 1.0309702e-38
0.20603999 0.19334285 0.60600001 9.578982e-39
0.17056288 0.1935343 0.60300004 9.4594162e-39
0.17142668 0.19321336 0.60200006 9.8267582e-39
0.17257334 0.19321336 0.60200006 1.01941e-38
0.17343143 0.19289239 0.60100001 1.0653278e-38
0.17428571 0.19257143 0.60000002 1.1112455e-38
0.17542858 0.19257143 0.60000002 1.1571633e-38
0.17657143 0.19257143 0.60000002 1.1755304e-38
0.17771429 0.19257143 0.60000002 1.1938976e-38
0.17885715 0.19257143 0.60000002 1.2398156e-38
0.17970002 0.19225048 0.59900004 1.2857331e-38
0.18084095 0.19225048 0.59900004 1.285733e-38
0.18198191 0.19225048 0.59900004 1.2949165e-38
0.18312286 0.19225048 0.59900004 1.3041001e-38
0.18426381 0.19225048 0.59900004 1.3224673e-38
0.18540478 0.19225048 0.59900004 1.3224674e-38
0.18654573 0.19225048 0.59900004 1.3316514e-38
0.18768668 0.19225048 0.59900004 1.3316878e-38
0.18882763 0.19225048 0.59900004 1.3316871e-38
0.18996859 0.19225048 0.59900004 1.322503e-38
0.19142859 0.19257143 0.60000002 1.3132836e-38
0.19257143 0.19257143 0.60000002 1.2949165e-38
0.19371429 0.19257143 0.60000002 1.2765494e-38
0.19518191 0.19289239 0.60100001 1.2581823e-38
0.19632667 0.19289239 0.60100001 1.2398152e-38
0.19780001 0.19321336 0.60200006 1.2214481e-38
0.19927715 0.1935343 0.60300004 1.2031183e-38
0.20042573 0.1935343 0.60300004 1.1664572e-38
0.20190859 0.19385524 0.60400003 1.1394111e-38
0.20305905 0.19385524 0.60400003 1.076384e-38
0.20454763 0.1941762 0.60500002 1.022002e-38
0.17056288 0.19468288 0.60300004 9.2757452e-39
0.17142668 0.19436002 0.60200006 9.6430872e-39
0.17228666 0.19403714 0.60100001 1.0010431e-38
0.17343143 0.19403714 0.60100001 1.0469607e-38
0.17428571 0.19371429 0.60000002 1.0928784e-38
0.17542858 0.19371429 0.60000002 1.1387962e-38
0.17657143 0.19371429 0.60000002 1.1571633e-38
0.17771429 0.19371429 0.60000002 1.1847139e-38
0.17855906 0.19339144 0.59900004 1.2122646e-38
0.17970002 0.19339144 0.59900004 1.2489988e-38
0.18084095 0.19339144 0.59900004 1.2673659e-38
0.18198191 0.19339144 0.59900004 1.2765494e-38
0.18312286 0.19339144 0.59900004 1.2949166e-38
0.18426381 0.19339144 0.59900004 1.3041002e-38
0.18540478 0.19339144 0.59900004 1.3316508e-38
0.18654573 0.19339144 0.59900004 1.3500537e-38
0.18768668 0.19339144 0.59900004 1.3316866e-38
0.18882763 0.19339144 0.59900004 1.322503e-38
0.19028571 0.19371429 0.60000002 1.3041001e-38
0.19142859 0.19371429 0.60000002 1.2949165e-38
0.19257143 0.19371429 0.60000002 1.2765494e-38
0.19371429 0.19371429 0.60000002 1.2581823e-38
0.19518191 0.19403714 0.60100001 1.2398152e-38
0.19665335 0.19436002 0.60200006 1.2214481e-38
0.19780001 0.19436002 0.60200006 1.1938975e-38
0.19894667 0.19436002 0.60200006 1.1755681e-38
0.20042573 0.19468288 0.60300004 1.1389433e-38
0.2015743 0.19468288 0.60300004 1.1121119e-38
0.20305905 0.19500573 0.60400003 1.0491562e-38
0.17142668 0.19550668 0.60200006 9.4594162e-39
0.17257334 0.19550668 0.60200006 9.9185937e-39
0.17343143 0.19518191 0.60100001 1.0377771e-38
0.17428571 0.19485715 0.60000002 1.0836949e-38
0.17542858 0.19485715 0.60000002 1.1296126e-38
0.17657143 0.19485715 0.60000002 1.1479797e-38
0.17771429 0.19485715 0.60000002 1.1755304e-38
0.17855906 0.19453239 0.59900004 1.1938975e-38
0.17970002 0.19453239 0.59900004 1.2214481e-38
0.18084095 0.19453239 0.59900004 1.2398152e-38
0.18198191 0.19453239 0.59900004 1.2673659e-38
0.18312286 0.19453239 0.59900004 1.2765853e-38
0.18426381 0.19453239 0.59900004 1.2949165e-38
0.18540478 0.19453239 0.59900004 1.3316866e-38
0.18654573 0.19453239 0.59900004 1.3776043e-38
0.18768668 0.19453239 0.59900004 1.340906e-38
0.18882763 0.19453239 0.59900004 1.3132836e-38
0.19028571 0.19485715 0.60000002 1.2949165e-38
0.19142859 0.19485715 0.60000002 1.2765494e-38
0.19257143 0.19485715 0.60000002 1.2581823e-38
0.19371429 0.19485715 0.60000002 1.2398152e-38
0.19518191 0.19518191 0.60100001 1.2214481e-38
0.19632667 0.19518191 0.60100001 1.203081e-38
0.19780001 0.19550668 0.60200006 1.1755305e-38
0.19894667 0.19550668 0.60200006 1.1572734e-38
0.20009336 0.19550668 0.60200006 1.1206492e-38
0.20124002 0.19550668 0.60200006 1.0847056e-38
0.20305905 0.19615619 0.60400003 1.0311125e-38
0.17257334 0.19665335 0.60200006 9.6430872e-39
0.17343143 0.19632667 0.60100001 1.0102265e-38
0.17428571 0.19599999 0.60000002 1.0561442e-38
0.17542858 0.19599999 0.60000002 1.0928784e-38
0.17657143 0.19599999 0.60000002 1.1204291e-38
0.17771429 0.19599999 0.60000002 1.1479797e-38
0.17855906 0.19567335 0.59900004 1.1755304e-38
0.17970002 0.19567335 0.59900004 1.1938975e-38
0.18084095 0.19567335 0.59900004 1.2214481e-38
0.18198191 0.19567335 0.59900004 1.2398152e-38
0.18312286 0.19567335 0.59900004 1.2489988e-38
0.18426381 0.19567335 0.59900004 1.2673659e-38
0.18540478 0.19567335 0.59900004 1.2949524e-38
0.18654573 0.19567335 0.59900004 1.322503e-38
0.18768668 0.19567335 0.59900004 1.2949165e-38
0.18882763 0.19567335 0.59900004 1.2765494e-38
0.19028571 0.19599999 0.60000002 1.2673659e-38
0.19142859 0.19599999 0.60000002 1.2581823e-38
0.19257143 0.19599999 0.60000002 1.2398152e-38
0.19371429 0.19599999 0.60000002 1.2214481e-38
0.19518191 0.19632667 0.60100001 1.203081e-38
0.19665335 0.19665335 0.60200006 1.1847141e-38
0.19780001 0.19665335 0.60200006 1.1571637e-38
0.19894667 0.19665335 0.60200006 1.1390146e-38
0.20009336 0.19665335 0.60200006 1.1025345e-38
0.20124002 0.19665335 0.60200006 1.0665189e-38
0.17257334 0.19780001 0.60200006 9.4594162e-39
0.17343143 0.19747142 0.60100001 9.9185937e-39
0.17428571 0.19714287 0.60000002 1.0285936e-38
0.17542858 0.19714287 0.60000002 1.0653278e-38
0.17657143 0.19714287 0.60000002 1.0928784e-38
0.17771429 0.19714287 0.60000002 1.1296126e-38
0.17855906 0.1968143 0.59900004 1.1479797e-38
0.17970002 0.1968143 0.59900004 1.1755304e-38
0.18084095 0.1968143 0.59900004 1.1938975e-38
0.18198191 0.1968143 0.59900004 1.2214481e-38
0.18312286 0.1968143 0.59900004 1.2306317e-38
0.18426381 0.1968143 0.59900004 1.2398152e-38
0.18540478 0.1968143 0.59900004 1.2490346e-38
0.18654573 0.1968143 0.59900004 1.2673659e-38
0.18768668 0.1968143 0.59900004 1.2581823e-38
0.18914287 0.19714287 0.60000002 1.2489988e-38
0.19028571 0.19714287 0.60000002 1.2398152e-38
0.19142859 0.19714287 0.60000002 1.2398152e-38
0.19257143 0.19714287 0.60000002 1.2214481e-38
0.19371429 0.19714287 0.60000002 1.203081e-38
0.19518191 0.19747142 0.60100001 1.1847139e-38
0.19665335 0.19780001 0.60200006 1.1663475e-38
0.19780001 0.19780001 0.60200006 1.1388336e-38
0.19894667 0.19780001 0.60200006 1.1206844e-38
0.20009336 0.19780001 0.60200006 1.0844193e-38
0.20124002 0.19780001 0.60200006 1.048835e-38
0.17343143 0.19861619 0.60100001 9.5512517e-39
0.17457619 0.19861619 0.60100001 9.9185937e-39
0.17542858 0.19828573 0.60000002 1.01941e-38
0.17657143 0.19828573 0.60000002 1.0561442e-38
0.17771429 0.19828573 0.60000002 1.0928784e-38
0.17855906 0.19795525 0.59900004 1.1112455e-38
0.17999999 0.19828573 0.60000002 1.1387962e-38
0.18084095 0.19795525 0.59900004 1.1571633e-38
0.18198191 0.19795525 0.59900004 1.1755304e-38
0.18342857 0.19828573 0.60000002 1.1847139e-38
0.18457143 0.19828573 0.60000002 1.203081e-38
0.1857143 0.19828573 0.60000002 1.2122647e-38
0.18654573 0.19795525 0.59900004 1.2214481e-38
0.18800001 0.19828573 0.60000002 1.2122646e-38
0.18914287 0.19828573 0.60000002 1.2122646e-38
0.19028571 0.19828573 0.60000002 1.203081e-38
0.19174762 0.19861619 0.60100001 1.203081e-38
0.19289239 0.19861619 0.60100001 1.1938975e-38
0.19403714 0.19861619 0.60100001 1.1755304e-38
0.19550668 0.19894667 0.60200006 1.1571634e-38
0.19665335 0.19894667 0.60200006 1.1388693e-38
0.19780001 0.19894667 0.60200006 1.1112841e-38
0.19894667 0.19894667 0.60200006 1.083987e-38
0.19976096 0.19861619 0.60100001 1.0577664e-38
0.20090571 0.19861619 0.60100001 1.0220035e-38
0.17343143 0.19976096 0.60100001 9.2757452e-39
0.17457619 0.19976096 0.60100001 9.5512517e-39
0.17542858 0.19942857 0.60000002 9.8267582e-39
0.17657143 0.19942857 0.60000002 1.01941e-38
0.17771429 0.19942857 0.60000002 1.0561442e-38
0.17855906 0.1990962 0.59900004 1.083695e-38
0.17999999 0.19942857 0.60000002 1.1112455e-38
0.18084095 0.1990962 0.59900004 1.1204649e-38
0.18228573 0.19942857 0.60000002 1.1296126e-38
0.18342857 0.19942857 0.60000002 1.1479797e-38
0.18457143 0.19942857 0.60000002 1.1663468e-38
0.1857143 0.19942857 0.60000002 1.1663468e-38
0.18685715 0.19942857 0.60000002 1.1755304e-38
0.18800001 0.19942857 0.60000002 1.1755304e-38
0.18914287 0.19942857 0.60000002 1.1755304e-38
0.19028571 0.19942857 0.60000002 1.1755304e-38
0.19174762 0.19976096 0.60100001 1.1755304e-38
0.19289239 0.19976096 0.60100001 1.166347e-38
0.19403714 0.19976096 0.60100001 1.1571637e-38
0.19583145 0.20042573 0.60300004 1.138797e-38
0.19698001 0.20042573 0.60300004 1.1204669e-38
0.19780001 0.20009336 0.60200006 1.0837697e-38
0.19894667 0.20009336 0.60200006 1.0569755e-38
0.20009336 0.20009336 0.60200006 1.03115e-38
0.20124002 0.20009336 0.60200006 1.0039239e-38
0.17457619 0.20090571 0.60100001 9.2757452e-39
0.17572096 0.20090571 0.60100001 9.5512517e-39
0.17686571 0.20090571 0.60100001 9.8267582e-39
0.17771429 0.20057143 0.60000002 1.0194102e-38
0.17885715 0.20057143 0.60000002 1.0377774e-38
0.17999999 0.20057143 0.60000002 1.0653279e-38
0.18114287 0.20057143 0.60000002 1.083695e-38
0.18228573 0.20057143 0.60000002 1.0928784e-38
0.18342857 0.20057143 0.60000002 1.1112455e-38
0.18457143 0.20057143 0.60000002 1.1387962e-38
0.1857143 0.20057143 0.60000002 1.1387962e-38
0.18685715 0.20057143 0.60000002 1.1387962e-38
0.18800001 0.20057143 0.60000002 1.1387962e-38
0.18945809 0.20090571 0.60100001 1.1479797e-38
0.19060287 0.20090571 0.60100001 1.1479797e-38
0.19206668 0.20124002 0.60200006 1.1479799e-38
0.19321336 0.20124002 0.60200006 1.1296129e-38
0.19436002 0.20124002 0.60200006 1.1204299e-38
0.19583145 0.2015743 0.60300004 1.1020635e-38
0.19698001 0.2015743 0.60300004 1.0837333e-38
0.19812858 0.2015743 0.60300004 1.0475023e-38
0.19894667 0.20124002 0.60200006 1.0208164e-38
0.20042573 0.2015743 0.60300004 9.9466855e-39
0.2015743 0.2015743 0.60300004 9.6751293e-39
0.17601334 0.20238669 0.60200006 9.2757452e-39
0.17686571 0.20205048 0.60100001 9.5512517e-39
0.17801048 0.20205048 0.60100001 9.8267582e-39
0.17885715 0.20171429 0.60000002 1.0010431e-38
0.17999999 0.20171429 0.60000002 1.0285936e-38
0.18114287 0.20171429 0.60000002 1.0469607e-38
0.18228573 0.20171429 0.60000002 1.0653278e-38
0.18342857 0.20171429 0.60000002 1.0836949e-38
0.18457143 0.20171429 0.60000002 1.1112455e-38
0.1857143 0.20171429 0.60000002 1.1112455e-38
0.18685715 0.20171429 0.60000002 1.1112455e-38
0.18831334 0.20205048 0.60100001 1.1112455e-38
0.18945809 0.20205048 0.60100001 1.1204291e-38
0.19092001 0.20238669 0.60200006 1.1204291e-38
0.19206668 0.20238669 0.60200006 1.1204292e-38
0.19321336 0.20238669 0.60200006 1.1020624e-38
0.19436002 0.20238669 0.60200006 1.0836968e-38
0.19583145 0.20272286 0.60300004 1.0653313e-38
0.19698001 0.20272286 0.60300004 1.0474318e-38
0.19812858 0.20272286 0.60300004 1.0112728e-38
0.19894667 0.20238669 0.60200006 9.8494438e-39
0.20009336 0.20238669 0.60200006 9.5822134e-39
0.20124002 0.20238669 0.60200006 9.3081475e-39
0.17830668 0.20353335 0.60200006 9.3675807e-39
0.17915525 0.20319524 0.60100001 9.5512517e-39
0.1803 0.20319524 0.60100001 9.7349227e-39
0.18114287 0.20285715 0.60000002 9.9185937e-39
0.18258953 0.20319524 0.60100001 1.01941e-38
0.18342857 0.20285715 0.60000002 1.0377771e-38
0.18487905 0.20319524 0.60100001 1.0561442e-38
0.1860238 0.20319524 0.60100001 1.0653278e-38
0.18716858 0.20319524 0.60100001 1.0653278e-38
0.18862668 0.20353335 0.60200006 1.0653278e-38
0.18977335 0.20353335 0.60200006 1.0745113e-38
0.19092001 0.20353335 0.60200006 1.0653278e-38
0.19206668 0.20353335 0.60200006 1.065328e-38
0.19321336 0.20353335 0.60200006 1.0561449e-38
0.19436002 0.20353335 0.60200006 1.0469996e-38
0.19583145 0.20387144 0.60300004 1.0290655e-38
0.19698001 0.20387144 0.60300004 1.020314e-38
0.19812858 0.20387144 0.60300004 9.8476516e-39
0.19894667 0.20353335 0.60200006 9.5825609e-39
0.20009336 0.20353335 0.60200006 9.3067083e-39
0.18144476 0.20434001 0.60100001 9.4594162e-39
0.18258953 0.20434001 0.60100001 9.7349227e-39
0.18373428 0.20434001 0.60100001 9.9189525e-39
0.18487905 0.20434001 0.60100001 1.0102265e-38
0.1860238 0.20434001 0.60100001 1.01941e-38
0.18716858 0.20434001 0.60100001 1.0286296e-38
0.18862668 0.20468001 0.60200006 1.0286655e-38
0.18977335 0.20468001 0.60200006 1.02863e-38
0.19092001 0.20468001 0.60200006 1.0194469e-38
0.19238573 0.20502001 0.60300004 1.0102649e-38
0.19321336 0.20468001 0.60200006 1.0103021e-38
0.19468288 0.20502001 0.60300004 1.0106624e-38
0.19615619 0.20536001 0.60400003 1.0025207e-38
0.19730668 0.20536001 0.60400003 9.9416353e-39
0.19812858 0.20502001 0.60300004 9.674751e-39
0.19927715 0.20502001 0.60300004 9.3988956e-39
0.18289335 0.20582668 0.60200006 9.3679395e-39
0.18373428 0.20548476 0.60100001 9.4597764e-39
0.18487905 0.20548476 0.60100001 9.6434474e-39
0.1860238 0.20548476 0.60100001 9.7352829e-39
0.18716858 0.20548476 0.60100001 9.8274785e-39
0.18862668 0.20582668 0.60200006 9.8274799e-39
0.18977335 0.20582668 0.60200006 9.9193238e-39
0.19123715 0.20616859 0.60300004 9.8278554e-39
0.19238573 0.20616859 0.60300004 9.8282394e-39
0.1935343 0.20616859 0.60300004 9.8318533e-39
0.19468288 0.20616859 0.60300004 9.8354463e-39
0.19615619 0.20651048 0.60400003 9.8501613e-39
0.19730668 0.20651048 0.60400003 9.9516924e-39
0.19845715 0.20651048 0.60400003 9.4910898e-39
0.18633336 0.20697336 0.60200006 9.2764697e-39
0.18748002 0.20697336 0.60200006 9.3683164e-39
0.18894 0.20731716 0.60300004 9.4601617e-39
0.19008859 0.20731716 0.60300004 9.5527287e-39
0.19123715 0.20731716 0.60300004 9.5534602e-39
0.19238573 0.20731716 0.60300004 9.5602929e-39
0.1935343 0.20731716 0.60300004 9.5674844e-39
0.19468288 0.20731716 0.60300004 9.5753877e-39
0.19583145 0.20731716 0.60300004 9.766962e-39
0.19730668 0.20766096 0.60400003 9.950633e-39
0.19008859 0.20846574 0.60300004 9.2815578e-39
0.19123715 0.20846574 0.60300004 9.2865997e-39
0.19238573 0.20846574 0.60300004 9.3834645e-39
0.19321336 0.20812002 0.60200006 9.3902888e-39
0.19436002 0.20812002 0.60200006 9.3978376e-39
0.19583145 0.20846574 0.60300004 9.7680648e-39
0.19238573 0.21076286 0.60300004 9.3070657e-39
