# .PCD v0.7 - Point Cloud Data file format
VERSION 0.7
FIELDS x y z rgb
SIZE 4 4 4 4
TYPE F F F F
COUNT 1 1 1 1
WIDTH 600
HEIGHT 1
VIEWPOINT 0 0 0 1 0 0 0
POINTS 600
DATA ascii
0.028844764 -0.23541048 0.97700006 7.8337433e-39
0.0308 -0.23613334 0.98000002 7.0054231e-39
0.026983811 -0.23354954 0.97700006 8.113577e-39
0.028844764 -0.23354954 0.97700006 8.6609858e-39
0.0308 -0.23426667 0.98000002 7.649345e-39
0.03256667 -0.23354954 0.97700006 6.6366462e-39
0.03442762 -0.23354954 0.97700006 6.7288432e-39
0.026983811 -0.23168857 0.97700006 7.4671552e-39
0.028844764 -0.23168857 0.97700006 7.7433553e-39
0.030705715 -0.23168857 0.97700006 6.9132247e-39
0.032666665 -0.2324 0.98000002 6.0852731e-39
0.034533337 -0.2324 0.98000002 6.4533368e-39
0.023190476 -0.22912191 0.97400004 6.9135848e-39
0.0252 -0.23053333 0.98000002 6.8214004e-39
0.026983811 -0.22982763 0.97700006 6.8214116e-39
0.028844764 -0.22982763 0.97700006 6.9125156e-39
0.030705715 -0.22982763 0.97700006 6.1774603e-39
0.019440001 -0.22680001 0.97200006 6.4561814e-39
0.021291429 -0.22680001 0.97200006 6.5480183e-39
0.023261905 -0.22796668 0.97700006 6.8217339e-39
0.0252 -0.22866666 0.98000002 7.0961698e-39
0.027066667 -0.22866666 0.98000002 6.9121471e-39
0.028933333 -0.22866666 0.98000002 6.8192312e-39
0.0308 -0.22866666 0.98000002 6.4526039e-39
0.032666665 -0.22866666 0.98000002 6.1778163e-39
0.011960001 -0.22356001 0.96600002 3.6860582e-39
0.019380001 -0.2242543 0.96900004 5.2547543e-39
0.021291429 -0.22494859 0.97200006 6.0841577e-39
0.023190476 -0.22541143 0.97400004 6.72989e-39
0.056468572 -0.22494859 0.97200006 7.1909158e-39
0.058320004 -0.22494859 0.97200006 7.1912675e-39
0.060171433 -0.22494859 0.97200006 7.1923367e-39
0.062022857 -0.22494859 0.97200006 7.2827317e-39
0.063874289 -0.22494859 0.97200006 7.1905333e-39
0.074982859 -0.22494859 0.97200006 7.6522317e-39
0.076834284 -0.22494859 0.97200006 7.8362642e-39
0.0046285717 -0.22309716 0.97200006 6.7288278e-39
0.0064800004 -0.22309716 0.97200006 7.0029064e-39
0.0083057145 -0.22240858 0.96900004 6.5397899e-39
0.010120001 -0.22172 0.96600002 5.9851854e-39
0.011960001 -0.22172 0.96600002 5.5260051e-39
0.019320002 -0.22172 0.96600002 5.8990055e-39
0.021225715 -0.22240858 0.96900004 6.2591981e-39
0.023142857 -0.22309716 0.97200006 6.4450481e-39
0.032299999 -0.22240858 0.96900004 4.7091476e-39
0.034251429 -0.22309716 0.97200006 5.6278627e-39
0.036102857 -0.22309716 0.97200006 6.5469365e-39
0.037837144 -0.22240858 0.96900004 6.0866856e-39
0.060171433 -0.22309716 0.97200006 7.0072322e-39
0.062150478 -0.22355619 0.97400004 7.0990649e-39
0.063874289 -0.22309716 0.97200006 7.0987034e-39
0.065860949 -0.22355619 0.97400004 7.0994166e-39
0.067716196 -0.22355619 0.97400004 7.0990537e-39
0.069428571 -0.22309716 0.97200006 7.0990579e-39
0.071280003 -0.22309716 0.97200006 7.1908976e-39
0.073131427 -0.22309716 0.97200006 7.2838121e-39
0.074982859 -0.22309716 0.97200006 7.3763679e-39
0.076834284 -0.22309716 0.97200006 7.5607591e-39
0.078685716 -0.22309716 0.97200006 7.5607619e-39
0.080537148 -0.22309716 0.97200006 7.6518813e-39
0.082388572 -0.22309716 0.97200006 7.6518828e-39
0.084240004 -0.22309716 0.97200006 7.6518813e-39
0.086091429 -0.22309716 0.97200006 7.5600459e-39
0.087942861 -0.22309716 0.97200006 7.5600459e-39
0.089794286 -0.22309716 0.97200006 7.6518813e-39
-0.00092571432 -0.22124572 0.97200006 4.4293503e-39
0.00092571432 -0.22124572 0.97200006 5.723675e-39
0.0027771429 -0.22124572 0.97200006 7.0082986e-39
0.0046285717 -0.22124572 0.97200006 7.5585969e-39
0.0064600003 -0.22056286 0.96900004 8.201444e-39
0.0082799997 -0.21988 0.96600002 7.6507883e-39
0.010120001 -0.21988 0.96600002 7.1926899e-39
0.011960001 -0.21988 0.96600002 7.4692753e-39
0.013757143 -0.21919715 0.96300006 7.8351726e-39
0.021225715 -0.22056286 0.96900004 6.4497088e-39
0.023142857 -0.22124572 0.97200006 6.1724213e-39
0.024994288 -0.22124572 0.97200006 5.9880328e-39
0.03036 -0.21988 0.96600002 3.6824638e-39
0.032200001 -0.21988 0.96600002 2.4885926e-39
0.034145713 -0.22056286 0.96900004 3.7742797e-39
0.039560001 -0.21988 0.96600002 4.792721e-39
0.069428571 -0.22124572 0.97200006 7.0979747e-39
0.071280003 -0.22124572 0.97200006 7.0986992e-39
0.073131427 -0.22124572 0.97200006 7.0994208e-39
0.074982859 -0.22124572 0.97200006 7.1923367e-39
0.076834284 -0.22124572 0.97200006 7.3763693e-39
0.078685716 -0.22124572 0.97200006 7.3770881e-39
0.080537148 -0.22124572 0.97200006 7.3763721e-39
0.082388572 -0.22124572 0.97200006 7.2841778e-39
0.084240004 -0.22124572 0.97200006 7.2841764e-39
0.086091429 -0.22124572 0.97200006 7.2845338e-39
0.087942861 -0.22124572 0.97200006 7.3760105e-39
0.089979053 -0.22170097 0.97400004 7.4667698e-39
0.11201143 -0.22124572 0.97200006 8.204681e-39
-0.00092571432 -0.2193943 0.97200006 2.4925526e-39
0.00092571432 -0.2193943 0.97200006 4.8960962e-39
0.0027771429 -0.2193943 0.97200006 7.1930654e-39
0.0046285717 -0.2193943 0.97200006 7.4685775e-39
0.0064600003 -0.21871716 0.96900004 7.7440728e-39
0.0082799997 -0.21804 0.96600002 7.4681977e-39
0.010120001 -0.21804 0.96600002 7.1019404e-39
0.011922858 -0.21736287 0.96300006 7.284545e-39
0.033863809 -0.21691144 0.96100003 5.4298186e-39
0.035694286 -0.21691144 0.96100003 6.1637654e-39
0.037524763 -0.21691144 0.96100003 5.8882393e-39
0.039232384 -0.2162343 0.95800006 5.704595e-39
0.041057147 -0.2162343 0.95800006 5.8969022e-39
0.074982859 -0.2193943 0.97200006 7.0061546e-39
0.076834284 -0.2193943 0.97200006 7.0068735e-39
0.078685716 -0.2193943 0.97200006 7.0068749e-39
0.080537148 -0.2193943 0.97200006 6.9150394e-39
0.082388572 -0.2193943 0.97200006 7.0068749e-39
0.084240004 -0.2193943 0.97200006 7.0990663e-39
0.086091429 -0.2193943 0.97200006 7.1912577e-39
0.087942861 -0.2193943 0.97200006 7.2838107e-39
0.089794286 -0.2193943 0.97200006 7.4674831e-39
0.091645718 -0.2193943 0.97200006 7.6511541e-39
0.09349715 -0.2193943 0.97200006 7.6518715e-39
0.095348574 -0.2193943 0.97200006 7.7444259e-39
0.11201143 -0.2193943 0.97200006 7.8359069e-39
0.11386286 -0.2193943 0.97200006 7.9280997e-39
0.11571429 -0.2193943 0.97200006 7.927741e-39
0.11756572 -0.2193943 0.97200006 7.8359041e-39
0.00092571432 -0.21754287 0.97200006 4.0684893e-39
0.0027771429 -0.21754287 0.97200006 7.466767e-39
0.0046285717 -0.21754287 0.97200006 7.3781657e-39
0.0064600003 -0.21687144 0.96900004 7.3770853e-39
0.0082799997 -0.21620001 0.96600002 7.1923339e-39
0.010088571 -0.21552858 0.96300006 7.1001439e-39
0.011898095 -0.21508096 0.96100003 7.1001481e-39
0.032033335 -0.21508096 0.96100003 6.8249737e-39
0.033863809 -0.21508096 0.96100003 7.0089992e-39
0.035694286 -0.21508096 0.96100003 7.2837757e-39
0.037524763 -0.21508096 0.96100003 6.9157036e-39
0.039232384 -0.21440955 0.95800006 6.6358965e-39
0.041057147 -0.21440955 0.95800006 6.2642554e-39
0.043016192 -0.21508096 0.96100003 5.9887503e-39
0.046531431 -0.21440955 0.95800006 5.1622364e-39
0.074982859 -0.21754287 0.97200006 6.9125044e-39
0.076834284 -0.21754287 0.97200006 6.7288362e-39
0.078685716 -0.21754287 0.97200006 6.6373609e-39
0.082388572 -0.21754287 0.97200006 6.730281e-39
0.084240004 -0.21754287 0.97200006 7.0061434e-39
0.086091429 -0.21754287 0.97200006 7.0986936e-39
0.087942861 -0.21754287 0.97200006 7.2827261e-39
0.089794286 -0.21754287 0.97200006 7.4671187e-39
0.091645718 -0.21754287 0.97200006 7.6511457e-39
0.09349715 -0.21754287 0.97200006 7.6518617e-39
0.11201143 -0.21754287 0.97200006 7.5600388e-39
0.11386286 -0.21754287 0.97200006 7.7437126e-39
0.00092761905 -0.21613523 0.97400004 3.1375675e-39
0.0027771429 -0.21569143 0.97200006 5.628611e-39
0.0046142861 -0.21502572 0.96900004 6.0881542e-39
0.0064400001 -0.21436 0.96600002 6.5476918e-39
0.0082542859 -0.21369429 0.96300006 6.7310055e-39
0.010088571 -0.21369429 0.96300006 6.9143177e-39
0.011898095 -0.21325049 0.96100003 6.9143177e-39
0.032033335 -0.21325049 0.96100003 6.8253563e-39
0.033863809 -0.21325049 0.96100003 7.0093986e-39
0.035694286 -0.21325049 0.96100003 7.2852582e-39
0.037524763 -0.21325049 0.96100003 7.1912647e-39
0.039232384 -0.21258478 0.95800006 7.193759e-39
0.041057147 -0.21258478 0.95800006 6.8235318e-39
0.043016192 -0.21325049 0.96100003 6.4533241e-39
0.044706669 -0.21258478 0.95800006 6.2667875e-39
0.046531431 -0.21258478 0.95800006 6.1720835e-39
0.05796 -0.21436 0.96600002 6.530041e-39
0.082388572 -0.21569143 0.97200006 6.3589817e-39
0.084240004 -0.21569143 0.97200006 6.5430087e-39
0.086091429 -0.21569143 0.97200006 6.8199473e-39
0.087942861 -0.21569143 0.97200006 7.0054175e-39
0.089794286 -0.21569143 0.97200006 7.0054245e-39
0.091645718 -0.21569143 0.97200006 7.0972558e-39
0.09349715 -0.21569143 0.97200006 7.0990467e-39
0.095348574 -0.21569143 0.97200006 7.1011991e-39
0.11201143 -0.21569143 0.97200006 7.5600374e-39
0.11386286 -0.21569143 0.97200006 7.6518771e-39
0.11941715 -0.21569143 0.97200006 7.744077e-39
0.12126858 -0.21569143 0.97200006 7.7447958e-39
0.00092761905 -0.21427999 0.97400004 2.2984602e-39
0.0027771429 -0.21384001 0.97200006 3.872599e-39
0.0046000001 -0.21252 0.96600002 4.8017384e-39
0.0064400001 -0.21252 0.96600002 5.81121e-39
0.0082542859 -0.21186002 0.96300006 6.2696686e-39
0.010067619 -0.21142001 0.96100003 6.7292048e-39
0.011898095 -0.21142001 0.96100003 6.8214004e-39
0.032033335 -0.21142001 0.96100003 6.8235584e-39
0.033863809 -0.21142001 0.96100003 7.0079553e-39
0.035694286 -0.21142001 0.96100003 7.2831002e-39
0.037524763 -0.21142001 0.96100003 7.4667684e-39
0.039355241 -0.21142001 0.96100003 7.7422637e-39
0.041185718 -0.21142001 0.96100003 7.3752692e-39
0.043016192 -0.21142001 0.96100003 7.0039854e-39
0.044940002 -0.21186002 0.96300006 7.0969013e-39
0.046774287 -0.21186002 0.96300006 7.1912535e-39
0.084240004 -0.21384001 0.97200006 6.1734961e-39
0.086091429 -0.21384001 0.97200006 6.4508046e-39
0.087942861 -0.21384001 0.97200006 6.8195815e-39
0.11756572 -0.21384001 0.97200006 7.74407e-39
0.0027771429 -0.21198858 0.97200006 2.392095e-39
0.0046000001 -0.21068001 0.96600002 4.2489303e-39
0.00642 -0.21002571 0.96300006 6.1771128e-39
0.008237143 -0.20958953 0.96100003 6.3607796e-39
0.010067619 -0.20958953 0.96100003 6.6362875e-39
0.033863809 -0.20958953 0.96100003 6.7299307e-39
0.035694286 -0.20958953 0.96100003 7.1898242e-39
0.037524763 -0.20958953 0.96100003 7.2809422e-39
0.039355241 -0.20958953 0.96100003 7.4642489e-39
0.041185718 -0.20958953 0.96100003 6.8206773e-39
0.043016192 -0.20958953 0.96100003 6.2693098e-39
0.044846665 -0.20958953 0.96100003 6.636656e-39
0.046677142 -0.20958953 0.96100003 7.0990719e-39
0.048608571 -0.21002571 0.96300006 7.3756658e-39
0.078199998 -0.21068001 0.96600002 6.1742093e-39
0.0045761908 -0.20775905 0.96100003 3.6960943e-39
0.0064066667 -0.20775905 0.96100003 6.5437205e-39
0.0082114292 -0.20711049 0.95800006 6.5448051e-39
0.035694286 -0.20775905 0.96100003 7.0983474e-39
0.037524763 -0.20775905 0.96100003 7.0979887e-39
0.039355241 -0.20775905 0.96100003 7.1890955e-39
0.041185718 -0.20775905 0.96100003 6.3607698e-39
0.043016192 -0.20775905 0.96100003 5.5346175e-39
0.044706669 -0.20711049 0.95800006 6.2682336e-39
0.046677142 -0.20775905 0.96100003 7.0068721e-39
0.04850762 -0.20775905 0.96100003 7.0990733e-39
0.08712858 -0.20819144 0.96300006 4.9710306e-39
0.08896286 -0.20819144 0.96300006 3.5931353e-39
0.091080002 -0.20884 0.96600002 2.2152357e-39
0.092919998 -0.20884 0.96600002 3.6842351e-39
0.094760001 -0.20884 0.96600002 5.2483014e-39
0.096900001 -0.20948859 0.96900004 5.3433598e-39
0.0045761908 -0.20592858 0.96100003 3.5091652e-39
0.0082114292 -0.20528573 0.95800006 6.0874185e-39
0.043016192 -0.20592858 0.96100003 6.3614887e-39
0.046531431 -0.20528573 0.95800006 7.0987006e-39
0.04850762 -0.20592858 0.96100003 7.2830946e-39
0.08896286 -0.20635715 0.96300006 5.616756e-39
0.09215048 -0.20528573 0.95800006 5.613128e-39
0.094269522 -0.20592858 0.96100003 6.1623277e-39
0.096100003 -0.20592858 0.96100003 6.0729851e-39
0.097930476 -0.20592858 0.96100003 6.0758816e-39
0.04850762 -0.20409811 0.96100003 7.4674789e-39
0.088223808 -0.20282382 0.95500004 7.6522149e-39
0.090042859 -0.20282382 0.95500004 7.8351614e-39
0.091861904 -0.20282382 0.95500004 7.4674551e-39
0.11647715 -0.20452286 0.96300006 4.0573196e-39
0.11831143 -0.20452286 0.96300006 4.8852922e-39
0.12014572 -0.20452286 0.96300006 5.7121648e-39
0.12172667 -0.20409811 0.96100003 5.8965476e-39
0.15683143 -0.20452286 0.96300006 7.2831002e-39
0.161 -0.20515999 0.96600002 7.1905403e-39
0.16284001 -0.20515999 0.96600002 7.0979859e-39
0.16468 -0.20515999 0.96600002 7.0983474e-39
0.090042859 -0.20100477 0.95500004 8.112128e-39
0.09166953 -0.20058383 0.95300007 7.7444357e-39
0.093484767 -0.20058383 0.95300007 7.4689278e-39
0.095300011 -0.20058383 0.95300007 7.284538e-39
0.096809521 -0.19995239 0.95000005 7.1919766e-39
0.098930478 -0.20058383 0.95300007 7.0969041e-39
0.11257429 -0.20226763 0.96100003 6.1616102e-39
0.11952191 -0.20163621 0.95800006 5.8021758e-39
0.1272181 -0.20226763 0.96100003 3.8722347e-39
0.12904857 -0.20226763 0.96100003 4.2424479e-39
0.13087904 -0.20226763 0.96100003 4.7048526e-39
0.13270952 -0.20226763 0.96100003 5.1636699e-39
0.13453999 -0.20226763 0.96100003 5.6228474e-39
0.15732001 -0.20332001 0.96600002 7.0990733e-39
0.15915999 -0.20332001 0.96600002 7.0987062e-39
0.161 -0.20332001 0.96600002 7.0987048e-39
0.16284001 -0.20332001 0.96600002 6.9146736e-39
0.16468 -0.20332001 0.96600002 6.8224822e-39
0.16652 -0.20332001 0.96600002 7.098709e-39
0.16835999 -0.20332001 0.96600002 7.3752959e-39
0.086404763 -0.19918571 0.95500004 7.6522275e-39
0.088223808 -0.19918571 0.95500004 8.0195709e-39
0.090042859 -0.19918571 0.95500004 8.3869184e-39
0.09166953 -0.19876859 0.95300007 8.0195807e-39
0.093484767 -0.19876859 0.95300007 7.7437182e-39
0.095300011 -0.19876859 0.95300007 7.7437196e-39
0.096809521 -0.19814286 0.95000005 7.8366243e-39
0.098930478 -0.19876859 0.95300007 7.745858e-39
0.11550952 -0.19918571 0.95500004 6.818134e-39
0.11708286 -0.19876859 0.95300007 6.3543e-39
0.11914762 -0.19918571 0.95500004 5.8940379e-39
0.12071334 -0.19876859 0.95300007 5.4337758e-39
0.12252858 -0.19876859 0.95300007 5.0671653e-39
0.12395239 -0.19814286 0.95000005 3.408758e-39
0.13006191 -0.19918571 0.95500004 3.5009242e-39
0.13229524 -0.19981144 0.95800006 4.238471e-39
0.13370001 -0.19918571 0.95500004 5.0660625e-39
0.13594477 -0.19981144 0.95800006 5.0671359e-39
0.13776952 -0.19981144 0.95800006 5.1593483e-39
0.15499716 -0.2008543 0.96300006 6.638807e-39
0.15732001 -0.20148 0.96600002 6.9139492e-39
0.15915999 -0.20148 0.96600002 7.0057805e-39
0.161 -0.20148 0.96600002 7.0983348e-39
0.16284001 -0.20148 0.96600002 6.8203186e-39
0.16468 -0.20148 0.96600002 6.5458911e-39
0.16652 -0.20148 0.96600002 6.8228353e-39
0.16835999 -0.20148 0.96600002 7.190899e-39
0.17020001 -0.20148 0.96600002 7.3731393e-39
0.17150572 -0.2008543 0.96300006 7.6486458e-39
0.088223808 -0.19736668 0.95500004 7.7433511e-39
0.090042859 -0.19736668 0.95500004 8.1106945e-39
0.09166953 -0.19695334 0.95300007 7.927385e-39
0.093484767 -0.19695334 0.95300007 7.7437196e-39
0.095300011 -0.19695334 0.95300007 7.744084e-39
0.097115248 -0.19695334 0.95300007 7.6540351e-39
0.098930478 -0.19695334 0.95300007 7.6536708e-39
0.11526763 -0.19695334 0.95300007 7.4699872e-39
0.11708286 -0.19695334 0.95300007 7.097609e-39
0.1188981 -0.19695334 0.95300007 6.7252475e-39
0.12071334 -0.19695334 0.95300007 6.3561147e-39
0.12252858 -0.19695334 0.95300007 6.0788131e-39
0.12369143 -0.19592002 0.94800007 5.2501399e-39
0.12576191 -0.19633333 0.95000005 4.4218043e-39
0.12757143 -0.19633333 0.95000005 5.3387033e-39
0.13705049 -0.19695334 0.95300007 5.7060313e-39
0.13886572 -0.19695334 0.95300007 5.6188901e-39
0.15499716 -0.19902001 0.96300006 6.1785309e-39
0.15732001 -0.19964001 0.96600002 6.4540374e-39
0.15915999 -0.19964001 0.96600002 6.8217381e-39
0.16150001 -0.20026001 0.96900004 7.2816373e-39
0.16468 -0.19964001 0.96600002 7.738668e-39
0.16703714 -0.20026001 0.96900004 8.3836716e-39
0.16835999 -0.19964001 0.96600002 9.1208709e-39
0.17020001 -0.19964001 0.96600002 8.6591865e-39
0.17204 -0.19964001 0.96600002 8.1975007e-39
0.17334001 -0.19902001 0.96300006 7.7383275e-39
0.088223808 -0.19554763 0.95500004 7.5596829e-39
0.090042859 -0.19554763 0.95500004 7.8351894e-39
0.091861904 -0.19554763 0.95500004 7.8355495e-39
0.093484767 -0.19513811 0.95300007 7.8359097e-39
0.095300011 -0.19513811 0.95300007 7.6525988e-39
0.097115248 -0.19513811 0.95300007 7.5607605e-39
0.099138096 -0.19554763 0.95500004 7.6525946e-39
0.11550952 -0.19554763 0.95500004 8.1117665e-39
0.11732858 -0.19554763 0.95500004 7.8362502e-39
0.1188981 -0.19513811 0.95300007 7.5596675e-39
0.12071334 -0.19513811 0.95300007 7.283445e-39
0.12252858 -0.19513811 0.95300007 7.1001313e-39
0.12369143 -0.19411431 0.94800007 7.10049e-39
0.12576191 -0.19452383 0.95000005 7.1011991e-39
0.12757143 -0.19452383 0.95000005 8.0202645e-39
0.12938096 -0.19452383 0.95000005 9.0290116e-39
0.13119048 -0.19452383 0.95000005 8.0173778e-39
0.133 -0.19452383 0.95000005 7.0057482e-39
0.13480952 -0.19452383 0.95000005 6.6369685e-39
0.13661906 -0.19452383 0.95000005 6.2653287e-39
0.13842857 -0.19452383 0.95000005 5.8022122e-39
0.14141905 -0.19616193 0.95800006 5.3441109e-39
0.15499716 -0.19718572 0.96300006 5.7154004e-39
0.15683143 -0.19718572 0.96300006 6.0859696e-39
0.15965429 -0.1984143 0.96900004 6.7320466e-39
0.16652 -0.1978 0.96600002 9.9552643e-39
0.16835999 -0.1978 0.96600002 1.1050131e-38
0.17020001 -0.1978 0.96600002 9.9499141e-39
0.17204 -0.1978 0.96600002 8.8439393e-39
0.17388 -0.1978 0.96600002 8.013471e-39
0.0099523813 -0.19271429 0.95000005 5.6278655e-39
0.011761905 -0.19271429 0.95000005 6.1803414e-39
0.09166953 -0.19332287 0.95300007 7.9277438e-39
0.093484767 -0.19332287 0.95300007 8.1117707e-39
0.095300011 -0.19332287 0.95300007 7.8362628e-39
0.097115248 -0.19332287 0.95300007 7.560399e-39
0.11369048 -0.19372858 0.95500004 8.2954529e-39
0.11550952 -0.19372858 0.95500004 8.5713111e-39
0.11732858 -0.19372858 0.95500004 8.0195737e-39
0.11914762 -0.19372858 0.95500004 7.4678418e-39
0.12096667 -0.19372858 0.95500004 7.2838121e-39
0.12252858 -0.19332287 0.95300007 7.099781e-39
0.12395239 -0.19271429 0.95000005 7.1919752e-39
0.12615906 -0.19332287 0.95300007 7.1926983e-39
0.12757143 -0.19271429 0.95000005 7.8362712e-39
0.12938096 -0.19271429 0.95000005 8.5738222e-39
0.13119048 -0.19271429 0.95000005 7.9266662e-39
0.133 -0.19271429 0.95000005 7.2841778e-39
0.13480952 -0.19271429 0.95000005 7.100867e-39
0.13661906 -0.19271429 0.95000005 6.9175379e-39
0.13842857 -0.19271429 0.95000005 6.6362749e-39
0.15650572 -0.19494572 0.96100003 5.9848e-39
0.15833619 -0.19494572 0.96100003 6.0816564e-39
0.17020001 -0.19596002 0.96600002 7.5650709e-39
0.17204 -0.19596002 0.96600002 7.8441549e-39
0.17334001 -0.19535144 0.96300006 7.5550068e-39
0.1751743 -0.19535144 0.96300006 7.196266e-39
0.013542858 -0.19050287 0.94800007 6.6398832e-39
0.026238097 -0.19090477 0.95000005 7.0994236e-39
0.028047619 -0.19090477 0.95000005 6.9157484e-39
0.11550952 -0.19190952 0.95500004 9.0304928e-39
0.11708286 -0.19150762 0.95300007 8.2032461e-39
0.11914762 -0.19190952 0.95500004 7.4671215e-39
0.12096667 -0.19190952 0.95500004 7.2823688e-39
0.12252858 -0.19150762 0.95300007 7.1901787e-39
0.12395239 -0.19090477 0.95000005 7.2820184e-39
0.12615906 -0.19150762 0.95300007 7.3756518e-39
0.12757143 -0.19090477 0.95000005 7.7440756e-39
0.12938096 -0.19090477 0.95000005 8.1114148e-39
0.13119048 -0.19090477 0.95000005 7.8359069e-39
0.133 -0.19090477 0.95000005 7.6511597e-39
0.13480952 -0.19090477 0.95000005 7.6515198e-39
0.13661906 -0.19090477 0.95000005 7.6515086e-39
0.13842857 -0.19090477 0.95000005 7.4678264e-39
0.15833619 -0.19311525 0.96100003 5.434866e-39
0.0063200006 -0.18869716 0.94800007 6.4575056e-40
0.013542858 -0.18869716 0.94800007 6.8239157e-39
0.11914762 -0.19009049 0.95500004 7.5585955e-39
0.12071334 -0.18969239 0.95300007 7.374556e-39
0.12252858 -0.18969239 0.95300007 7.2823702e-39
0.12395239 -0.18909524 0.95000005 7.3745728e-39
0.12576191 -0.18909524 0.95000005 7.5586053e-39
0.12757143 -0.18909524 0.95000005 7.8359097e-39
0.12938096 -0.18909524 0.95000005 8.111056e-39
0.13119048 -0.18909524 0.95000005 7.9270249e-39
0.133 -0.18909524 0.95000005 7.7429952e-39
0.13480952 -0.18909524 0.95000005 7.7429952e-39
0.13661906 -0.18909524 0.95000005 7.7433483e-39
0.13842857 -0.18909524 0.95000005 7.6515086e-39
0.14023809 -0.18909524 0.95000005 7.6518659e-39
0.14204763 -0.18909524 0.95000005 7.5596717e-39
0.14385715 -0.18909524 0.95000005 7.5607591e-39
0.16331621 -0.19068763 0.95800006 4.233488e-39
0.17064001 -0.18869716 0.94800007 7.0961726e-39
0.17244571 -0.18869716 0.94800007 7.1754371e-39
0.17664096 -0.19128476 0.96100003 5.7078488e-39
0.0063200006 -0.18689144 0.94800007 1.1045567e-39
0.0081685716 -0.18787715 0.95300007 1.2867942e-39
0.0099838106 -0.18787715 0.95300007 1.4762385e-39
0.12071334 -0.18787715 0.95300007 7.467832e-39
0.12252858 -0.18787715 0.95300007 7.3756434e-39
0.12395239 -0.18728572 0.95000005 7.5589626e-39
0.12576191 -0.18728572 0.95000005 7.8348335e-39
0.12757143 -0.18728572 0.95000005 8.019945e-39
0.12938096 -0.18728572 0.95000005 8.2032531e-39
0.13119048 -0.18728572 0.95000005 8.0181429e-39
0.133 -0.18728572 0.95000005 7.8348293e-39
0.13480952 -0.18728572 0.95000005 7.8359055e-39
0.13661906 -0.18728572 0.95000005 7.9277396e-39
0.13842857 -0.18728572 0.95000005 7.9280969e-39
0.14023809 -0.18728572 0.95000005 7.9273794e-39
0.14204763 -0.18728572 0.95000005 7.8348265e-39
0.14385715 -0.18728572 0.95000005 7.8366299e-39
0.14566667 -0.18728572 0.95000005 7.8387935e-39
0.16427906 -0.18787715 0.95300007 6.9157288e-39
0.16557144 -0.18728572 0.95000005 7.0993844e-39
0.16738096 -0.18728572 0.95000005 7.1915632e-39
0.17064001 -0.18689144 0.94800007 7.1876606e-39
0.17244571 -0.18689144 0.94800007 7.1793789e-39
0.0099838106 -0.18606192 0.95300007 1.7459829e-39
0.12214286 -0.1854762 0.95000005 7.2845296e-39
0.12395239 -0.1854762 0.95000005 7.4682048e-39
0.12576191 -0.1854762 0.95000005 7.7437196e-39
0.12757143 -0.1854762 0.95000005 8.2039817e-39
0.12938096 -0.1854762 0.95000005 8.6638697e-39
0.13119048 -0.1854762 0.95000005 8.2943683e-39
0.133 -0.1854762 0.95000005 7.9266648e-39
0.13480952 -0.1854762 0.95000005 8.0192163e-39
0.13661906 -0.1854762 0.95000005 8.2032475e-39
0.13886572 -0.18606192 0.95300007 8.0192205e-39
0.14023809 -0.1854762 0.95000005 7.927385e-39
0.14204763 -0.1854762 0.95000005 7.8348335e-39
0.14385715 -0.1854762 0.95000005 7.8369957e-39
0.14566667 -0.1854762 0.95000005 8.0210352e-39
0.1474762 -0.1854762 0.95000005 8.2036188e-39
0.16195238 -0.1854762 0.95000005 6.9142981e-39
0.16376191 -0.1854762 0.95000005 7.0990467e-39
0.16557144 -0.1854762 0.95000005 7.1926842e-39
0.16702859 -0.18508573 0.94800007 7.1912577e-39
0.1688343 -0.18508573 0.94800007 7.2834534e-39
0.096809521 -0.18366668 0.95000005 7.190906e-39
0.12395239 -0.18366668 0.95000005 7.4674873e-39
0.12576191 -0.18366668 0.95000005 7.6508023e-39
0.12757143 -0.18366668 0.95000005 8.388359e-39
0.12938096 -0.18366668 0.95000005 9.2141568e-39
0.13119048 -0.18366668 0.95000005 8.5705866e-39
0.133 -0.18366668 0.95000005 8.0181387e-39
0.13523525 -0.18424667 0.95300007 8.2943641e-39
0.13661906 -0.18366668 0.95000005 8.5702349e-39
0.13842857 -0.18366668 0.95000005 8.2043349e-39
0.14023809 -0.18366668 0.95000005 7.9270305e-39
0.14204763 -0.18366668 0.95000005 7.9270277e-39
0.14385715 -0.18366668 0.95000005 7.9277508e-39
0.14566667 -0.18366668 0.95000005 8.2054153e-39
0.16376191 -0.18366668 0.95000005 7.1908808e-39
0.16557144 -0.18366668 0.95000005 7.3745588e-39
0.16702859 -0.18328001 0.94800007 7.2827317e-39
0.1688343 -0.18328001 0.94800007 7.2827387e-39
0.17064001 -0.18328001 0.94800007 7.9281039e-39
0.011700001 -0.18090001 0.94500005 6.4493627e-39
0.12576191 -0.18185715 0.95000005 7.2823786e-39
0.12910858 -0.1814743 0.94800007 7.8362572e-39
0.13119048 -0.18185715 0.95000005 7.7433441e-39
0.133 -0.18185715 0.95000005 7.6507939e-39
0.13480952 -0.18185715 0.95000005 7.8348279e-39
0.13661906 -0.18185715 0.95000005 8.0188688e-39
0.13886572 -0.18243143 0.95300007 7.7430148e-39
0.14068097 -0.18243143 0.95300007 7.5593354e-39
0.1424962 -0.18243143 0.95300007 7.559327e-39
0.14385715 -0.18185715 0.95000005 7.6511639e-39
0.14566667 -0.18185715 0.95000005 7.8348363e-39
0.1474762 -0.18185715 0.95000005 8.1106973e-39
0.16376191 -0.18185715 0.95000005 7.1905206e-39
0.16522287 -0.1814743 0.94800007 7.2827219e-39
0.16702859 -0.1814743 0.94800007 7.2823716e-39
0.1688343 -0.1814743 0.94800007 7.2823828e-39
0.1701 -0.18090001 0.94500005 7.7440826e-39
0.1719 -0.18090001 0.94500005 8.2968318e-39
0.14204763 -0.18004762 0.95000005 7.2830988e-39
0.14385715 -0.18004762 0.95000005 7.4664125e-39
0.14566667 -0.18004762 0.95000005 7.558248e-39
0.16341716 -0.17966858 0.94800007 7.0979733e-39
0.16522287 -0.17966858 0.94800007 7.1901731e-39
0.16702859 -0.17966858 0.94800007 7.282373e-39
0.1683 -0.17910001 0.94500005 7.3734994e-39
0.1701 -0.17910001 0.94500005 7.6518856e-39
0.1719 -0.17910001 0.94500005 8.0195274e-39
0.16341716 -0.17786287 0.94800007 7.0057847e-39
0.16522287 -0.17786287 0.94800007 7.1898172e-39
0.16650002 -0.17730001 0.94500005 7.1898214e-39
0.1683 -0.17730001 0.94500005 7.2813052e-39
0.1692 -0.1763619 0.94000006 7.5589711e-39
0.17044477 -0.17579906 0.93700004 7.8344187e-39
0.16290002 -0.17550001 0.94500005 7.0054231e-39
0.16470002 -0.17550001 0.94500005 7.1898144e-39
0.16650002 -0.17550001 0.94500005 7.1901773e-39
0.16776572 -0.17494285 0.94200003 7.281301e-39
0.1692 -0.17457144 0.94000006 7.4664125e-39
0.17044477 -0.1740143 0.93700004 7.7425832e-39
0.16290002 -0.1737 0.94500005 6.9128674e-39
0.16470002 -0.1737 0.94500005 7.0979761e-39
0.16650002 -0.1737 0.94500005 7.2812926e-39
0.16740954 -0.17278096 0.94000006 7.4649678e-39
0.16866 -0.17222953 0.93700004 7.5582424e-39
0.17099048 -0.17278096 0.94000006 7.6511064e-39
0.16417715 -0.17135429 0.94200003 7.0972558e-39
0.16597143 -0.17135429 0.94200003 7.3731238e-39
0.16740954 -0.17099048 0.94000006 7.649345e-39
0.16866 -0.17044477 0.93700004 7.6500597e-39
0.17099048 -0.17099048 0.94000006 7.6493114e-39
0.16382857 -0.1692 0.94000006 6.912866e-39
0.16561906 -0.1692 0.94000006 7.0043427e-39
0.16740954 -0.1692 0.94000006 7.0958097e-39
0.1692 -0.1692 0.94000006 7.1879955e-39
0.17044477 -0.16866 0.93700004 7.2805345e-39
0.1620381 -0.16740954 0.94000006 6.6362903e-39
0.16382857 -0.16740954 0.94000006 6.7284817e-39
0.16561906 -0.16740954 0.94000006 6.6370021e-39
0.16740954 -0.16740954 0.94000006 6.6369937e-39
0.1692 -0.16740954 0.94000006 6.7288208e-39
0.17099048 -0.16740954 0.94000006 6.9124778e-39
0.17278096 -0.16740954 0.94000006 5.9941102e-39
0.16382857 -0.16561906 0.94000006 6.4526207e-39
0.16509047 -0.16509047 0.93700004 6.4526151e-39
0.16740954 -0.16561906 0.94000006 6.4526067e-39
0.16866 -0.16509047 0.93700004 6.4529584e-39
0.17044477 -0.16509047 0.93700004 6.54514e-39
0.17222953 -0.16509047 0.93700004 5.9933984e-39
0.16152096 -0.16330571 0.93700004 6.5448079e-39
0.16330571 -0.16330571 0.93700004 6.2689399e-39
0.16509047 -0.16330571 0.93700004 6.2689385e-39
0.16687524 -0.16330571 0.93700004 6.2682168e-39
0.17008096 -0.16295715 0.93500006 6.17601e-39
0.17186192 -0.16295715 0.93500006 5.993048e-39
0.16024762 -0.1620381 0.94000006 6.5448009e-39
0.16509047 -0.16152096 0.93700004 6.0841857e-39
0.16509047 -0.1597362 0.93700004 5.8997986e-39
0.16687524 -0.1597362 0.93700004 5.9919915e-39
0.16866 -0.1597362 0.93700004 5.898721e-39
0.18373716 -0.15355811 0.93200004 6.1795861e-39
0.18688573 -0.15322858 0.93000007 6.1695444e-39
0.18906286 -0.15355811 0.93200004 5.4302067e-39
0.18373716 -0.15178287 0.93200004 6.6384189e-39
0.18551239 -0.15178287 0.93200004 7.007193e-39
0.18688573 -0.15145716 0.93000007 7.3745448e-39
0.18906286 -0.15178287 0.93200004 6.8239017e-39
0.19042858 -0.15145716 0.93000007 6.3629138e-39
0.19220001 -0.15145716 0.93000007 6.2696251e-39
0.18196191 -0.15000762 0.93200004 6.3604167e-39
0.18373716 -0.15000762 0.93200004 6.4533284e-39
0.18551239 -0.15000762 0.93200004 6.6373581e-39
0.18688573 -0.14968573 0.93000007 6.821399e-39
0.18865715 -0.14968573 0.93000007 6.5459051e-39
0.19042858 -0.14968573 0.93000007 6.3625719e-39
0.19220001 -0.14968573 0.93000007 6.2692818e-39
0.19438857 -0.15000762 0.93200004 6.2678483e-39
0.18373716 -0.14823239 0.93200004 6.2664232e-39
0.18551239 -0.14823239 0.93200004 6.266426e-39
0.18688573 -0.14791429 0.93000007 6.3622145e-39
0.18865715 -0.14791429 0.93000007 6.3597118e-39
0.19042858 -0.14791429 0.93000007 6.3632907e-39
0.19220001 -0.14791429 0.93000007 6.357544e-39
0.19397144 -0.14791429 0.93000007 6.3578999e-39
0.18511429 -0.14614287 0.93000007 6.5444422e-39
0.18688573 -0.14614287 0.93000007 6.7299096e-39
0.18865715 -0.14614287 0.93000007 7.0061364e-39
0.19042858 -0.14614287 0.93000007 7.3742e-39
0.19220001 -0.14614287 0.93000007 7.0951118e-39
0.18865715 -0.14437144 0.93000007 7.7436958e-39
0.19042858 -0.14437144 0.93000007 8.38691e-39
0.19220001 -0.14437144 0.93000007 7.928457e-39
