# .PCD v0.7 - Point Cloud Data file format
VERSION 0.7
FIELDS x y z rgb
SIZE 4 4 4 4
TYPE F F F F
COUNT 1 1 1 1
WIDTH 273
HEIGHT 1
VIEWPOINT 0 0 0 1 0 0 0
POINTS 273
DATA ascii
-0.62998575 -0.41501433 1.0450001 6.0827312e-39
-0.62799525 -0.41501433 1.0450001 5.8986986e-39
-0.62600482 -0.41501433 1.0450001 5.7150346e-39
-0.62401432 -0.41501433 1.0450001 5.715043e-39
-0.62380958 -0.41620576 1.0480001 5.7154018e-39
-0.62418669 -0.41779429 1.052 5.8994329e-39
-0.62218291 -0.41779429 1.052 6.0834612e-39
-0.62017912 -0.41779429 1.052 6.1756555e-39
-0.62817717 -0.41183811 1.0420001 6.2660518e-39
-0.62799525 -0.41302383 1.0450001 6.0820235e-39
-0.62600482 -0.41302383 1.0450001 5.8987126e-39
-0.62401432 -0.41302383 1.0450001 5.8072373e-39
-0.62202388 -0.41302383 1.0450001 5.8072373e-39
-0.62181336 -0.41420957 1.0480001 5.8994329e-39
-0.6198172 -0.41420957 1.0480001 5.9916285e-39
-0.61782098 -0.41420957 1.0480001 6.1756597e-39
-0.61582482 -0.41420957 1.0480001 6.4522423e-39
-0.61792856 -0.41697621 1.0550001 6.5447967e-39
-0.61767054 -0.41816193 1.0580001 6.727746e-39
-0.6156553 -0.41816193 1.0580001 6.6351903e-39
-0.61364007 -0.41816193 1.0580001 6.6351931e-39
-0.61162484 -0.41816193 1.0580001 6.4508088e-39
-0.62456 -0.40749335 1.036 6.3578971e-39
-0.62619239 -0.40985334 1.0420001 6.1742317e-39
-0.62420762 -0.40985334 1.0420001 5.8990784e-39
-0.6222229 -0.40985334 1.0420001 5.8990742e-39
-0.62202388 -0.41103336 1.0450001 5.8072387e-39
-0.62003338 -0.41103336 1.0450001 5.8997916e-39
-0.6198172 -0.41221336 1.0480001 5.9919887e-39
-0.61782098 -0.41221336 1.0480001 6.2682168e-39
-0.61817527 -0.41378668 1.052 6.5451554e-39
-0.61617148 -0.41378668 1.052 6.6369881e-39
-0.61591905 -0.4149667 1.0550001 6.7288222e-39
-0.6156553 -0.4161467 1.0580001 6.820299e-39
-0.61190003 -0.4149667 1.0550001 6.9117786e-39
-0.61162484 -0.4161467 1.0580001 6.7270356e-39
-0.62456 -0.40552002 1.036 6.541917e-39
-0.62619239 -0.40786859 1.0420001 6.2664077e-39
-0.62420762 -0.40786859 1.0420001 5.9909027e-39
-0.6222229 -0.40786859 1.0420001 5.8994273e-39
-0.62023813 -0.40786859 1.0420001 5.8994301e-39
-0.61825335 -0.40786859 1.0420001 5.9001518e-39
-0.61804289 -0.40904287 1.0450001 5.9923474e-39
-0.61782098 -0.41021717 1.0480001 6.3611271e-39
-0.61582482 -0.41021717 1.0480001 6.7284677e-39
-0.61617148 -0.41178286 1.052 6.7295425e-39
-0.61416763 -0.41178286 1.052 6.8203018e-39
-0.61216384 -0.41178286 1.052 7.0043329e-39
-0.61190003 -0.41295719 1.0550001 7.1876466e-39
-0.60989052 -0.41295719 1.0550001 7.0032595e-39
-0.62636858 -0.40471524 1.039 6.358595e-39
-0.62619239 -0.40588382 1.0420001 6.1749128e-39
-0.62420762 -0.40588382 1.0420001 6.0841619e-39
-0.6222229 -0.40588382 1.0420001 5.9919761e-39
-0.62023813 -0.40588382 1.0420001 5.9916229e-39
-0.61825335 -0.40588382 1.0420001 5.9916299e-39
-0.61804289 -0.4070524 1.0450001 6.0849004e-39
-0.61605239 -0.4070524 1.0450001 6.3604083e-39
-0.61582482 -0.40822101 1.0480001 6.6359147e-39
-0.61382866 -0.40822101 1.0480001 6.728109e-39
-0.61183244 -0.40822101 1.0480001 6.8203046e-39
-0.60983622 -0.40822101 1.0480001 7.0961726e-39
-0.61190003 -0.41094765 1.0550001 7.3716791e-39
-0.60989052 -0.41094765 1.0550001 7.0965314e-39
-0.62456 -0.40157333 1.036 6.2667651e-39
-0.62438953 -0.40273619 1.039 6.1752813e-39
-0.62241048 -0.40273619 1.039 6.1756442e-39
-0.62043142 -0.40273619 1.039 6.0841731e-39
-0.61845237 -0.40273619 1.039 6.0834598e-39
-0.61647332 -0.40273619 1.039 6.0834654e-39
-0.61804289 -0.40506193 1.0450001 6.1753009e-39
-0.61605239 -0.40506193 1.0450001 6.3593321e-39
-0.61406195 -0.40506193 1.0450001 6.5440806e-39
-0.61207145 -0.40506193 1.0450001 6.636635e-39
-0.60784006 -0.40622479 1.0480001 7.556069e-39
-0.60584384 -0.40622479 1.0480001 7.2812841e-39
-0.62258667 -0.3996 1.036 6.083457e-39
-0.62241048 -0.40075716 1.039 5.9916215e-39
-0.61864001 -0.3996 1.036 6.0834584e-39
-0.61666667 -0.3996 1.036 6.0834626e-39
-0.61469328 -0.3996 1.036 6.0834668e-39
-0.61626858 -0.4019143 1.0420001 6.1756611e-39
-0.61428386 -0.4019143 1.0420001 6.3596908e-39
-0.61229908 -0.4019143 1.0420001 6.5444408e-39
-0.61207145 -0.40307146 1.0450001 6.6366392e-39
-0.60983622 -0.4042286 1.0480001 7.0043329e-39
-0.60784006 -0.4042286 1.0480001 7.2812827e-39
-0.60584384 -0.4042286 1.0480001 7.0969027e-39
-0.62258667 -0.39762667 1.036 5.9916215e-39
-0.62061334 -0.39762667 1.036 5.8994301e-39
-0.61864001 -0.39762667 1.036 5.9909097e-39
-0.61666667 -0.39762667 1.036 6.1756639e-39
-0.61469328 -0.39762667 1.036 6.1756695e-39
-0.61449426 -0.39877811 1.039 6.176024e-39
-0.61428386 -0.39992955 1.0420001 6.3600481e-39
-0.61229908 -0.39992955 1.0420001 6.5440806e-39
-0.61031431 -0.39992955 1.0420001 6.636635e-39
-0.61008096 -0.401081 1.0450001 6.8203032e-39
-0.60584384 -0.40223241 1.0480001 6.8199543e-39
-0.62061334 -0.39565334 1.036 5.8990742e-39
-0.61864001 -0.39565334 1.036 6.1745863e-39
-0.61666667 -0.39565334 1.036 6.4515361e-39
-0.61469328 -0.39565334 1.036 6.3600677e-39
-0.61449426 -0.39679906 1.039 6.3607754e-39
-0.61251521 -0.39679906 1.039 6.5440778e-39
-0.61229908 -0.39794478 1.0420001 6.7273901e-39
-0.61031431 -0.39794478 1.0420001 6.8199445e-39
-0.60832953 -0.39794478 1.0420001 6.9128534e-39
-0.60809052 -0.39909053 1.0450001 6.8202976e-39
-0.62094289 -0.39140004 1.0300001 6.4511605e-39
-0.618981 -0.39140004 1.0300001 6.1752939e-39
-0.6188162 -0.39253998 1.033 5.991267e-39
-0.61684853 -0.39253998 1.033 6.3586118e-39
-0.61666667 -0.39368001 1.036 6.7277516e-39
-0.61469328 -0.39368001 1.036 6.6369979e-39
-0.61272001 -0.39368001 1.036 6.636635e-39
-0.61251521 -0.39482 1.039 6.8203004e-39
-0.61229908 -0.39596003 1.0420001 7.0036141e-39
-0.61031431 -0.39596003 1.0420001 7.0036155e-39
-0.60832953 -0.39596003 1.0420001 7.0039728e-39
-0.62094289 -0.38943812 1.0300001 6.4515179e-39
-0.618981 -0.38943812 1.0300001 6.3603998e-39
-0.6188162 -0.39057237 1.033 6.2692818e-39
-0.61684853 -0.39057237 1.033 6.5447897e-39
-0.61488092 -0.39057237 1.033 6.9121331e-39
-0.61291337 -0.39057237 1.033 6.8203004e-39
-0.61272001 -0.39170665 1.036 6.8206591e-39
-0.61074668 -0.39170665 1.036 6.9121359e-39
-0.61053622 -0.39284095 1.039 7.0043315e-39
-0.60855716 -0.39284095 1.039 7.0961698e-39
-0.62094289 -0.38747624 1.0300001 6.5444352e-39
-0.618981 -0.38747624 1.0300001 6.5447953e-39
-0.61701912 -0.38747624 1.0300001 6.544075e-39
-0.61684853 -0.38860476 1.033 6.8192214e-39
-0.61488092 -0.38860476 1.033 7.0950894e-39
-0.61291337 -0.38860476 1.033 7.0039742e-39
-0.6109457 -0.38860476 1.033 7.0039728e-39
-0.61074668 -0.38973334 1.036 7.0039714e-39
-0.60877335 -0.38973334 1.036 7.0958083e-39
-0.61853141 -0.38401717 1.026 6.5447981e-39
-0.618981 -0.38551432 1.0300001 6.3607726e-39
-0.61701912 -0.38551432 1.0300001 6.268214e-39
-0.61505717 -0.38551432 1.0300001 6.5437163e-39
-0.61488092 -0.38663712 1.033 6.9099863e-39
-0.61291337 -0.38663712 1.033 6.8195899e-39
-0.6109457 -0.38663712 1.033 6.8203032e-39
-0.60897809 -0.38663712 1.033 6.8206591e-39
-0.60877335 -0.38776001 1.036 6.8220955e-39
-0.61853141 -0.38206288 1.026 6.544075e-39
-0.61657715 -0.38206288 1.026 6.2689315e-39
-0.61701912 -0.3835524 1.0300001 5.992346e-39
-0.61505717 -0.3835524 1.0300001 6.3600453e-39
-0.61309528 -0.3835524 1.0300001 6.7266712e-39
-0.61291337 -0.38466951 1.033 6.7270328e-39
-0.6109457 -0.38466951 1.033 6.7281076e-39
-0.60897809 -0.38466951 1.033 6.6373483e-39
-0.60877335 -0.38578668 1.036 6.6377126e-39
-0.61672288 -0.37899712 1.023 6.5433534e-39
-0.61477429 -0.37899712 1.023 6.4515221e-39
-0.61282569 -0.37899712 1.023 6.3596866e-39
-0.61266857 -0.38010859 1.026 6.6348343e-39
-0.61071426 -0.38010859 1.026 6.9103408e-39
-0.6111334 -0.38159052 1.0300001 6.8185067e-39
-0.6109457 -0.3827019 1.033 6.7281076e-39
-0.60897809 -0.3827019 1.033 6.4529612e-39
-0.61477429 -0.37704858 1.023 6.6344756e-39
-0.61282569 -0.37704858 1.023 6.7270286e-39
-0.61087716 -0.37704858 1.023 6.9092646e-39
-0.60892856 -0.37704858 1.023 7.093293e-39
-0.60876 -0.37815431 1.026 6.9103394e-39
-0.60917151 -0.3796286 1.0300001 6.8188641e-39
-0.60720956 -0.3796286 1.0300001 6.3600467e-39
-0.60701048 -0.38073426 1.033 5.9023126e-39
-0.61672288 -0.37510002 1.023 6.6369825e-39
-0.61477429 -0.37510002 1.023 6.8199403e-39
-0.61282569 -0.37510002 1.023 6.9110583e-39
-0.61087716 -0.37510002 1.023 7.2791191e-39
-0.60892856 -0.37510002 1.023 7.6471758e-39
-0.60876 -0.37619999 1.026 7.279831e-39
-0.60917151 -0.37766671 1.0300001 7.0046846e-39
-0.60485142 -0.37619999 1.026 6.7288222e-39
-0.60524768 -0.37766671 1.0300001 6.3614858e-39
-0.60328579 -0.37766671 1.0300001 6.5448037e-39
-0.6149143 -0.37205717 1.0200001 6.8202962e-39
-0.61297148 -0.37205717 1.0200001 7.0068398e-39
-0.61102861 -0.37205717 1.0200001 7.1905206e-39
-0.60908574 -0.37205717 1.0200001 7.6500667e-39
-0.60892856 -0.37315142 1.023 8.2007125e-39
-0.60697997 -0.37315142 1.023 7.7415266e-39
-0.60680568 -0.3742457 1.026 7.2823491e-39
-0.60485142 -0.3742457 1.026 7.0990383e-39
-0.60289711 -0.3742457 1.026 6.9139338e-39
-0.60328579 -0.37570477 1.0300001 6.8220997e-39
-0.6149143 -0.3701143 1.0200001 6.6362679e-39
-0.61297148 -0.3701143 1.0200001 6.4536759e-39
-0.61102861 -0.3701143 1.0200001 6.2710993e-39
-0.61087716 -0.37120286 1.023 6.9146835e-39
-0.60892856 -0.37120286 1.023 7.5582354e-39
-0.60697997 -0.37120286 1.023 7.3738329e-39
-0.60680568 -0.37229142 1.026 7.1898018e-39
-0.60308284 -0.37120286 1.023 7.0976076e-39
-0.60289711 -0.37229142 1.026 7.0057693e-39
-0.6149143 -0.36817148 1.0200001 6.4518752e-39
-0.61297148 -0.36817148 1.0200001 5.900149e-39
-0.61102861 -0.36817148 1.0200001 5.4434952e-39
-0.60908574 -0.36817148 1.0200001 6.1785491e-39
-0.60892856 -0.36925429 1.023 6.9132261e-39
-0.60697997 -0.36925429 1.023 7.0054133e-39
-0.60503143 -0.36925429 1.023 7.0965286e-39
-0.60308284 -0.36925429 1.023 7.096167e-39
-0.60113424 -0.36925429 1.023 7.0958083e-39
-0.61116862 -0.36515146 1.0170001 6.3600425e-39
-0.61102861 -0.36622861 1.0200001 6.0852591e-39
-0.60908574 -0.36622861 1.0200001 6.5451596e-39
-0.60892856 -0.3673057 1.023 7.0050532e-39
-0.60697997 -0.3673057 1.023 7.0046945e-39
-0.60503143 -0.3673057 1.023 7.096167e-39
-0.60308284 -0.3673057 1.023 7.0965215e-39
-0.60094285 -0.36838284 1.026 7.0950922e-39
-0.59898853 -0.36838284 1.026 7.1862131e-39
-0.61116862 -0.36321431 1.0170001 6.912489e-39
-0.60923147 -0.36321431 1.0170001 6.7284649e-39
-0.60908574 -0.36428574 1.0200001 6.9121415e-39
-0.60892856 -0.36535713 1.023 7.0961698e-39
-0.60697997 -0.36535713 1.023 7.0965257e-39
-0.60503143 -0.36535713 1.023 7.0965243e-39
-0.59898853 -0.36642855 1.026 7.371319e-39
-0.60936576 -0.36021143 1.0140001 6.9132065e-39
-0.60743433 -0.36021143 1.0140001 6.7295411e-39
-0.60729432 -0.36127716 1.0170001 6.912859e-39
-0.60714293 -0.36234289 1.0200001 7.096167e-39
-0.60697997 -0.36340857 1.023 7.0046874e-39
-0.60503143 -0.36340857 1.023 6.9128534e-39
-0.60948861 -0.35722002 1.011 7.1887172e-39
-0.60936576 -0.35828003 1.0140001 7.0050448e-39
-0.60743433 -0.35828003 1.0140001 6.8213808e-39
-0.60729432 -0.35934004 1.0170001 6.9132233e-39
-0.60714293 -0.36040005 1.0200001 7.0968887e-39
-0.60520005 -0.36040005 1.0200001 6.9132121e-39
-0.60325718 -0.36040005 1.0200001 6.7295411e-39
-0.60768002 -0.35424 1.008 7.2805541e-39
-0.6075629 -0.35529429 1.011 7.0968845e-39
-0.60743433 -0.35634857 1.0140001 6.9135792e-39
-0.60550284 -0.35634857 1.0140001 7.0054231e-39
-0.60535717 -0.35740289 1.0170001 7.0057749e-39
-0.60342008 -0.35740289 1.0170001 6.9135736e-39
-0.60325718 -0.35845718 1.0200001 6.7299012e-39
-0.60768002 -0.35232002 1.008 7.3731098e-39
-0.60576004 -0.35232002 1.008 7.1897976e-39
-0.60383999 -0.35232002 1.008 7.0979663e-39
-0.60550284 -0.35441718 1.0140001 7.006135e-39
-0.60357147 -0.35441718 1.0140001 7.0061308e-39
-0.60342008 -0.35546574 1.0170001 6.9142925e-39
-0.60148293 -0.35546574 1.0170001 6.8213766e-39
-0.59954578 -0.35546574 1.0170001 7.0961628e-39
-0.60647434 -0.34970477 1.006 7.4653083e-39
-0.60455811 -0.34970477 1.006 7.2816359e-39
-0.60383999 -0.3504 1.008 7.1898004e-39
-0.60371143 -0.35144287 1.011 7.1898004e-39
-0.60178572 -0.35144287 1.011 7.0979649e-39
-0.60164005 -0.35248572 1.0140001 7.0050532e-39
-0.59970862 -0.35248572 1.0140001 6.8192242e-39
-0.59777713 -0.35248572 1.0140001 7.0954425e-39
-0.60647434 -0.34778857 1.006 7.5574997e-39
-0.60455811 -0.34778857 1.006 7.4649481e-39
-0.60383999 -0.34847999 1.008 7.3731126e-39
-0.60192001 -0.34847999 1.008 7.2812771e-39
-0.59999996 -0.34847999 1.008 7.2812771e-39
-0.59793425 -0.34951714 1.011 6.9117814e-39
-0.59584576 -0.35055432 1.0140001 7.2812771e-39
-0.59391433 -0.35055432 1.0140001 7.5582214e-39
-0.60647434 -0.3458724 1.006 7.4660215e-39
-0.60264194 -0.3458724 1.006 7.373114e-39
