# .PCD v0.7 - Point Cloud Data file format
VERSION 0.7
FIELDS x y z rgb
SIZE 4 4 4 4
TYPE F F F F
COUNT 1 1 1 1
WIDTH 170
HEIGHT 1
VIEWPOINT 0 0 0 1 0 0 0
POINTS 170
DATA ascii
0.37780476 -0.40937617 1.105 7.189806e-39
0.34949142 -0.40616572 1.102 7.557141e-39
0.35159048 -0.40616572 1.102 7.189443e-39
0.35240573 -0.40469146 1.098 7.2805653e-39
0.35449716 -0.40469146 1.098 7.3723994e-39
0.37677905 -0.40616572 1.102 7.2816443e-39
0.37990952 -0.40727144 1.105 7.1901661e-39
0.3483381 -0.40516669 1.105 7.5564333e-39
0.34822285 -0.40260002 1.098 7.2809198e-39
0.35031429 -0.40260002 1.098 7.0057735e-39
0.35240573 -0.40260002 1.098 7.0054175e-39
0.3723 -0.40150002 1.095 7.282003e-39
0.37541142 -0.40260002 1.098 7.3734812e-39
0.37990952 -0.40516669 1.105 7.1894543e-39
0.3820143 -0.40516669 1.105 7.0972628e-39
0.34529334 -0.40196761 1.102 7.0047057e-39
0.34739238 -0.40196761 1.102 7.0961754e-39
0.34822285 -0.40050858 1.098 6.9114212e-39
0.36187142 -0.3994143 1.095 7.1912535e-39
0.36812857 -0.3994143 1.095 7.5578794e-39
0.37021428 -0.3994143 1.095 7.1901717e-39
0.3723 -0.3994143 1.095 7.2816429e-39
0.37541142 -0.40050858 1.098 7.4645978e-39
0.37887809 -0.40196761 1.102 7.2802108e-39
0.38097715 -0.40196761 1.102 7.1890955e-39
0.35770002 -0.39732859 1.095 7.007221e-39
0.35978574 -0.39732859 1.095 7.0072238e-39
0.36187142 -0.39732859 1.095 7.0990579e-39
0.36395714 -0.39732859 1.095 7.2823702e-39
0.36812857 -0.39732859 1.095 7.1905459e-39
0.37021428 -0.39732859 1.095 7.0065049e-39
0.3723 -0.39732859 1.095 7.0054175e-39
0.37541142 -0.39841715 1.098 7.0965356e-39
0.37750286 -0.39841715 1.098 7.003984e-39
0.3795943 -0.39841715 1.098 6.9117926e-39
0.42295808 -0.39986858 1.102 6.913582e-39
0.35978574 -0.39524287 1.095 7.0068637e-39
0.36187142 -0.39524287 1.095 7.0068623e-39
0.36395714 -0.39524287 1.095 7.0068623e-39
0.36604285 -0.39524287 1.095 7.0068637e-39
0.36812857 -0.39524287 1.095 6.9150296e-39
0.37021428 -0.39524287 1.095 6.9139436e-39
0.3723 -0.39524287 1.095 6.8213808e-39
0.37541142 -0.39632574 1.098 6.7281146e-39
0.37750286 -0.39632574 1.098 6.6341309e-39
0.3795943 -0.39632574 1.098 6.6355728e-39
0.41876 -0.39776951 1.102 6.4526095e-39
0.42085904 -0.39776951 1.102 6.8203116e-39
0.42295808 -0.39776951 1.102 7.2798492e-39
0.36187142 -0.39315715 1.095 6.8210389e-39
0.36395714 -0.39315715 1.095 6.7292034e-39
0.36604285 -0.39315715 1.095 6.7291992e-39
0.36812857 -0.39315715 1.095 6.7291964e-39
0.37021428 -0.39315715 1.095 6.7295467e-39
0.3723 -0.39315715 1.095 6.636628e-39
0.37541142 -0.3942343 1.098 6.5433646e-39
0.37750286 -0.3942343 1.098 6.6348484e-39
0.41666093 -0.39567047 1.102 6.4518962e-39
0.41876 -0.39567047 1.102 6.4518962e-39
0.41933146 -0.3942343 1.098 6.5444506e-39
0.42142287 -0.3942343 1.098 6.6362847e-39
0.42351431 -0.3942343 1.098 6.7288376e-39
0.35847145 -0.38964289 1.0910001 6.7288376e-39
0.36187142 -0.39107144 1.095 6.6366448e-39
0.36395714 -0.39107144 1.095 6.5448107e-39
0.36604285 -0.39107144 1.095 6.5444492e-39
0.36812857 -0.39107144 1.095 6.5444478e-39
0.37021428 -0.39107144 1.095 6.6359203e-39
0.3723 -0.39107144 1.095 6.5440806e-39
0.37541142 -0.39214289 1.098 6.4515305e-39
0.37750286 -0.39214289 1.098 6.544445e-39
0.38481429 -0.39107144 1.095 7.1869403e-39
0.38690001 -0.39107144 1.095 7.0032679e-39
0.38898569 -0.39107144 1.095 7.0954622e-39
0.39107144 -0.39107144 1.095 7.1876578e-39
0.39315715 -0.39107144 1.095 7.0961824e-39
0.41724002 -0.39214289 1.098 6.4522494e-39
0.41933146 -0.39214289 1.098 6.1771058e-39
0.42142287 -0.39214289 1.098 5.9937949e-39
0.42351431 -0.39214289 1.098 6.453334e-39
0.42560571 -0.39214289 1.098 6.9132345e-39
0.36812857 -0.38898569 1.095 6.5430129e-39
0.37021428 -0.38898569 1.095 6.7270412e-39
0.3723 -0.38898569 1.095 6.5433702e-39
0.37541142 -0.39005145 1.098 6.3596978e-39
0.37750286 -0.39005145 1.098 6.4522494e-39
0.38272858 -0.38898569 1.095 6.8188781e-39
0.38481429 -0.38898569 1.095 6.7274041e-39
0.38690001 -0.38898569 1.095 6.7277614e-39
0.38898569 -0.38898569 1.095 6.8199543e-39
0.39107144 -0.38898569 1.095 6.9121471e-39
0.39315715 -0.38898569 1.095 6.9121471e-39
0.39632574 -0.39005145 1.098 6.9110681e-39
0.41724002 -0.39005145 1.098 6.4526025e-39
0.41933146 -0.39005145 1.098 6.3611327e-39
0.42142287 -0.39005145 1.098 6.3618544e-39
0.42351431 -0.39005145 1.098 6.6370078e-39
0.42444286 -0.38898569 1.095 6.9139576e-39
0.42769718 -0.39005145 1.098 7.0061602e-39
0.42978859 -0.39005145 1.098 7.0983418e-39
0.38690001 -0.38690001 1.095 6.5444478e-39
0.38898569 -0.38690001 1.095 6.6369993e-39
0.39107144 -0.38690001 1.095 6.7284761e-39
0.39315715 -0.38690001 1.095 6.7281174e-39
0.39632574 -0.38796002 1.098 6.7281132e-39
0.39841715 -0.38796002 1.098 6.7284677e-39
0.41933146 -0.38796002 1.098 6.6369979e-39
0.42142287 -0.38796002 1.098 6.7288348e-39
0.42351431 -0.38796002 1.098 6.8206717e-39
0.42560571 -0.38796002 1.098 7.0047085e-39
0.42769718 -0.38796002 1.098 7.0050742e-39
0.42978859 -0.38796002 1.098 7.0047015e-39
0.38690001 -0.38481429 1.095 6.6366406e-39
0.38898569 -0.38481429 1.095 6.8203116e-39
0.39107144 -0.38481429 1.095 7.0043413e-39
0.39315715 -0.38481429 1.095 6.9121471e-39
0.38690001 -0.38272858 1.095 6.8206773e-39
0.38898569 -0.38272858 1.095 7.0039938e-39
0.39990002 -0.37303334 1.085 6.0874227e-39
0.43916669 -0.37096667 1.085 7.0968985e-39
0.40254381 -0.36754003 1.0810001 6.8203018e-39
0.40460289 -0.36754003 1.0810001 6.9128477e-39
0.40666193 -0.36754003 1.0810001 7.0050532e-39
0.408721 -0.36754003 1.0810001 7.1887368e-39
0.41078001 -0.36754003 1.0810001 7.3731267e-39
0.41283908 -0.36754003 1.0810001 7.3731281e-39
0.43916669 -0.3689 1.085 7.0969041e-39
0.40254381 -0.36548099 1.0810001 7.1887256e-39
0.40460289 -0.36548099 1.0810001 7.1887228e-39
0.40666193 -0.36548099 1.0810001 7.1887298e-39
0.408721 -0.36548099 1.0810001 7.2809324e-39
0.41078001 -0.36548099 1.0810001 7.4653209e-39
0.41283908 -0.36548099 1.0810001 7.5578738e-39
0.41489813 -0.36548099 1.0810001 7.6489919e-39
0.41695717 -0.36548099 1.0810001 7.4649621e-39
0.41901621 -0.36548099 1.0810001 7.3731295e-39
0.42107525 -0.36548099 1.0810001 7.0057903e-39
0.4396067 -0.36548099 1.0810001 7.096544e-39
0.40460289 -0.36342192 1.0810001 7.1898088e-39
0.40666193 -0.36342192 1.0810001 7.2816471e-39
0.408721 -0.36342192 1.0810001 7.5575165e-39
0.41078001 -0.36342192 1.0810001 7.9255746e-39
0.41283908 -0.36342192 1.0810001 7.7415434e-39
0.41489813 -0.36342192 1.0810001 7.6497093e-39
0.41580003 -0.36241335 1.0780001 7.5571578e-39
0.43754765 -0.36342192 1.0810001 7.0979915e-39
0.4396067 -0.36342192 1.0810001 7.006149e-39
0.40460289 -0.36136287 1.0810001 7.2820058e-39
0.40666193 -0.36136287 1.0810001 7.3731281e-39
0.408721 -0.36136287 1.0810001 7.8341048e-39
0.41078001 -0.36136287 1.0810001 8.3851122e-39
0.41283908 -0.36136287 1.0810001 8.0181247e-39
0.41489813 -0.36136287 1.0810001 7.7422637e-39
0.41901621 -0.36136287 1.0810001 7.6497177e-39
0.43754765 -0.36136287 1.0810001 7.0994208e-39
0.44044003 -0.36036003 1.0780001 6.8203144e-39
0.408721 -0.35930383 1.0810001 7.5578865e-39
0.41078001 -0.35930383 1.0810001 7.8344607e-39
0.41283908 -0.35930383 1.0810001 7.7426182e-39
0.41489813 -0.35930383 1.0810001 7.6507883e-39
0.43754765 -0.35930383 1.0810001 7.0969041e-39
0.43838668 -0.35830668 1.0780001 7.005063e-39
0.43633336 -0.35625333 1.0780001 7.095465e-39
0.43675998 -0.35493144 1.074 7.0954608e-39
0.4388057 -0.35493144 1.074 7.0039812e-39
0.43471429 -0.35288572 1.074 7.556792e-39
0.43675998 -0.35288572 1.074 7.6486247e-39
0.43471429 -0.35083997 1.074 8.0184961e-39
0.43675998 -0.35083997 1.074 8.2939969e-39
0.43554005 -0.34578001 1.0710001 7.5589641e-39
