# .PCD v0.7 - Point Cloud Data file format
VERSION 0.7
FIELDS x y z rgb
SIZE 4 4 4 4
TYPE F F F F
COUNT 1 1 1 1
WIDTH 134
HEIGHT 1
VIEWPOINT 0 0 0 1 0 0 0
POINTS 134
DATA ascii
-0.43350002 -0.12303144 0.86700004 9.0319179e-39
-0.43184859 -0.12303144 0.86700004 9.1237576e-39
-0.43515146 -0.12138 0.86700004 9.7676753e-39
-0.43350002 -0.12138 0.86700004 9.3992585e-39
-0.43184859 -0.12138 0.86700004 9.3077831e-39
-0.43019718 -0.12138 0.86700004 9.30743e-39
-0.42854574 -0.12138 0.86700004 9.2156001e-39
-0.42590958 -0.12110001 0.86500007 9.1234003e-39
-0.43184859 -0.11972857 0.86700004 9.2152274e-39
-0.43019718 -0.11972857 0.86700004 9.1230345e-39
-0.42854574 -0.11972857 0.86700004 9.1226786e-39
-0.42689431 -0.11972857 0.86700004 9.0308417e-39
-0.43184859 -0.11807714 0.86700004 9.0304802e-39
-0.43019718 -0.11807714 0.86700004 9.031199e-39
-0.42854574 -0.11807714 0.86700004 9.0308417e-39
-0.42689431 -0.11807714 0.86700004 9.0304788e-39
-0.43756762 -0.11575429 0.86200005 8.57166e-39
-0.43756762 -0.11411238 0.86200005 8.4791057e-39
-0.43491429 -0.11384762 0.86000001 8.6631312e-39
-0.43491429 -0.11220952 0.86000001 8.570574e-39
-0.43390286 -0.11031429 0.85800004 8.4791029e-39
-0.43327618 -0.11057143 0.86000001 8.8468078e-39
-0.43163809 -0.11057143 0.86000001 9.0312004e-39
-0.43163809 -0.10893334 0.86000001 8.9393664e-39
-0.43000001 -0.10893334 0.86000001 9.1237534e-39
-0.4084343 -0.10190476 0.85600007 8.846812e-39
-0.44661337 -0.096106671 0.84800005 8.755331e-39
-0.44499812 -0.096106671 0.84800005 8.8475295e-39
-0.44338289 -0.096106671 0.84800005 8.9390034e-39
-0.41626287 -0.096560009 0.85200006 9.3070643e-39
-0.41464004 -0.096560009 0.85200006 9.0308403e-39
-0.41301715 -0.096560009 0.85200006 8.8468078e-39
-0.4113943 -0.096560009 0.85200006 8.8464463e-39
-0.44176763 -0.09449143 0.84800005 9.1230345e-39
-0.41626287 -0.094937146 0.85200006 9.3077859e-39
-0.41464004 -0.094937146 0.85200006 9.0312018e-39
-0.41301715 -0.094937146 0.85200006 8.8468078e-39
-0.4113943 -0.094937146 0.85200006 8.6627725e-39
-0.40977147 -0.094937146 0.85200006 8.4787469e-39
-0.41301715 -0.09331429 0.85200006 8.8471693e-39
-0.4113943 -0.09331429 0.85200006 8.4805406e-39
-0.40977147 -0.09331429 0.85200006 8.2046782e-39
-0.40814859 -0.09331429 0.85200006 8.2965165e-39
-0.40395239 -0.093095236 0.85000002 8.4794672e-39
-0.42561525 -0.091260955 0.84800005 9.8598835e-39
-0.40977147 -0.091691434 0.85200006 8.2965165e-39
-0.40814859 -0.091691434 0.85200006 8.3879946e-39
-0.40557143 -0.091476195 0.85000002 8.4794672e-39
-0.40395239 -0.091476195 0.85000002 8.4791057e-39
-0.40233335 -0.091476195 0.85000002 8.4787483e-39
-0.39261904 -0.089857146 0.85000002 8.2947242e-39
-0.44719145 -0.087511435 0.84300005 8.5720216e-39
-0.44558573 -0.087511435 0.84300005 8.6634983e-39
-0.41767144 -0.087719053 0.84500003 9.2152372e-39
-0.4144524 -0.086109526 0.84500003 9.0308529e-39
-0.4144524 -0.084500007 0.84500003 8.9393748e-39
-0.41284287 -0.084500007 0.84500003 9.0315704e-39
-0.41123334 -0.084500007 0.84500003 9.0308543e-39
-0.4096238 -0.084500007 0.84500003 9.1223241e-39
-0.4086543 -0.082694285 0.84300005 9.3978278e-39
-0.4080143 -0.082890481 0.84500003 9.0308403e-39
-0.40640476 -0.082890481 0.84500003 8.6631396e-39
-0.40479523 -0.082890481 0.84500003 8.3872744e-39
-0.4089343 -0.07413429 0.83700001 8.8471749e-39
-0.40733999 -0.07413429 0.83700001 8.9393706e-39
-0.40671524 -0.074311435 0.83900005 8.9397321e-39
-0.40511715 -0.074311435 0.83900005 9.2156001e-39
-0.41590953 -0.07236667 0.83500004 8.755687e-39
-0.41431907 -0.07236667 0.83500004 8.7546164e-39
-0.41113809 -0.07236667 0.83500004 8.7549793e-39
-0.41052857 -0.07254 0.83700001 8.755338e-39
-0.4089343 -0.07254 0.83700001 8.7553366e-39
-0.40733999 -0.07254 0.83700001 8.8475309e-39
-0.40574571 -0.07254 0.83700001 8.9393678e-39
-0.40511715 -0.072713338 0.83900005 9.0319235e-39
-0.40351909 -0.072713338 0.83900005 9.2159602e-39
-0.41590953 -0.070776194 0.83500004 8.6638627e-39
-0.41431907 -0.070776194 0.83500004 8.5713097e-39
-0.41272858 -0.070776194 0.83500004 8.5713111e-39
-0.41113809 -0.070776194 0.83500004 8.5716684e-39
-0.41052857 -0.070945717 0.83700001 8.6631438e-39
-0.4089343 -0.070945717 0.83700001 8.7549765e-39
-0.40733999 -0.070945717 0.83700001 8.7549737e-39
-0.40574571 -0.070945717 0.83700001 8.8471693e-39
-0.40511715 -0.07111524 0.83900005 8.9390076e-39
-0.40351909 -0.07111524 0.83900005 9.0312075e-39
-0.41113809 -0.069185719 0.83500004 8.3869198e-39
-0.41052857 -0.069351427 0.83700001 8.5705908e-39
-0.4089343 -0.069351427 0.83700001 8.7542604e-39
-0.40733999 -0.069351427 0.83700001 8.7546178e-39
-0.40574571 -0.069351427 0.83700001 8.846812e-39
-0.40511715 -0.069517143 0.83900005 8.8475309e-39
-0.40795714 -0.067595243 0.83500004 9.3074286e-39
-0.40733999 -0.067757145 0.83700001 9.1237576e-39
-0.40502575 -0.060793336 0.82900006 8.7546248e-39
-0.40442002 -0.060940001 0.83100003 8.9393734e-39
-0.40283713 -0.060940001 0.83100003 9.1234031e-39
-0.40186763 -0.059214287 0.82900006 9.3067139e-39
-0.40028861 -0.059214287 0.82900006 8.9393692e-39
-0.38357049 -0.054345712 0.82700002 8.8468064e-39
-0.38134 -0.054477148 0.82900006 8.6635011e-39
-0.38892859 -0.05264286 0.82500005 8.6642158e-39
-0.38578573 -0.05264286 0.82500005 9.3081573e-39
-0.38421431 -0.05264286 0.82500005 9.7669676e-39
-0.38264287 -0.05264286 0.82500005 9.3077831e-39
-0.38291907 -0.052898098 0.82900006 8.8478896e-39
-0.38134 -0.052898098 0.82900006 8.7560555e-39
-0.40052667 -0.050947621 0.82300001 8.8475309e-39
-0.39895907 -0.050947621 0.82300001 8.8478868e-39
-0.39144668 -0.051195238 0.82700002 8.2043222e-39
-0.38892859 -0.051071431 0.82500005 8.3883548e-39
-0.38735718 -0.051071431 0.82500005 8.5727558e-39
-0.38578573 -0.051071431 0.82500005 8.9404706e-39
-0.38514572 -0.051195238 0.82700002 9.3085174e-39
-0.38264287 -0.051071431 0.82500005 9.0322822e-39
-0.38291907 -0.051319048 0.82900006 8.7560583e-39
-0.38134 -0.051319048 0.82900006 8.8475351e-39
-0.39955333 -0.049260002 0.82100004 8.939009e-39
-0.39798954 -0.049260002 0.82100004 9.0312004e-39
-0.39835715 -0.049500003 0.82500005 8.8478854e-39
-0.39858001 -0.047580004 0.81900007 9.0315648e-39
-0.39798954 -0.047696192 0.82100004 9.1230373e-39
-0.39739144 -0.04781238 0.82300001 8.9397209e-39
-0.39678574 -0.047928575 0.82500005 8.7560457e-39
-0.39798954 -0.046132382 0.82100004 9.3074258e-39
-0.39642572 -0.046132382 0.82100004 9.0315564e-39
-0.39582384 -0.046244759 0.82300001 8.847884e-39
-0.39425617 -0.046244759 0.82300001 8.6638515e-39
-0.39642572 -0.044568572 0.82100004 8.9404397e-39
-0.39486191 -0.044568572 0.82100004 8.8482455e-39
-0.39425617 -0.044677142 0.82300001 8.6642158e-39
-0.39546004 -0.0429 0.81900007 8.8496818e-39
-0.39486191 -0.043004762 0.82100004 8.8475281e-39
-0.39329809 -0.043004762 0.82100004 8.6645731e-39
