# .PCD v0.7 - Point Cloud Data file format
VERSION 0.7
FIELDS x y z rgb
SIZE 4 4 4 4
TYPE F F F F
COUNT 1 1 1 1
WIDTH 135
HEIGHT 1
VIEWPOINT 0 0 0 1 0 0 0
POINTS 135
DATA ascii
-0.3292419 0.26062477 0.63200003 7.2794863e-39
-0.32855716 0.26103717 0.63300002 7.3720364e-39
-0.32735142 0.26103717 0.63300002 6.8195871e-39
-0.32563049 0.26062477 0.63200003 6.3607726e-39
-0.32442668 0.26062477 0.63200003 6.9121499e-39
-0.32855716 0.26224285 0.63300002 7.555706e-39
-0.32683432 0.26182857 0.63200003 7.1883668e-39
-0.32563049 0.26182857 0.63200003 6.8213864e-39
-0.32442668 0.26182857 0.63200003 7.2802094e-39
-0.3292419 0.26303241 0.63200003 7.4631503e-39
-0.32855716 0.26344857 0.63300002 7.738661e-39
-0.32683432 0.26303241 0.63200003 7.5549928e-39
-0.32563049 0.26303241 0.63200003 7.3720434e-39
-0.32442668 0.26303241 0.63200003 7.6479129e-39
-0.32855716 0.26465428 0.63300002 7.4642307e-39
-0.32735142 0.26465428 0.63300002 7.372042e-39
-0.32563049 0.26423618 0.63200003 7.3720462e-39
-0.36841428 0.26418 0.62900001 6.9124988e-39
-0.36838385 0.26502001 0.63100004 7.0961698e-39
-0.32442668 0.26544002 0.63200003 7.4646006e-39
-0.36782858 0.26495621 0.62800002 6.9121387e-39
-0.36721617 0.26537809 0.62900001 6.8206605e-39
-0.36718193 0.26622191 0.63100004 7.096167e-39
-0.36724287 0.26572859 0.62700003 6.8188571e-39
-0.3666324 0.26615241 0.62800002 6.6355476e-39
-0.36718193 0.26742381 0.63100004 6.9117758e-39
-0.36598003 0.26742381 0.63100004 7.1883598e-39
-0.32391334 0.26742381 0.63100004 7.2809296e-39
-0.3666324 0.26734856 0.62800002 6.819213e-39
-0.36718193 0.26862571 0.63100004 7.0043273e-39
-0.36598003 0.26862571 0.63100004 7.0965229e-39
-0.36546481 0.26768956 0.62600005 7.0968775e-39
-0.36601809 0.26897237 0.62900001 7.0968789e-39
-0.36598003 0.26982763 0.63100004 7.0968803e-39
-0.36604857 0.26931143 0.62700003 7.0043315e-39
-0.3654362 0.26974094 0.62800002 7.0046832e-39
-0.36482 0.27017048 0.62900001 7.0968803e-39
-0.36604857 0.27050573 0.62700003 6.9117744e-39
-0.36485431 0.27050573 0.62700003 7.0032497e-39
-0.36424002 0.27093714 0.62800002 7.0954481e-39
-0.34924477 0.27136859 0.62900001 6.9121331e-39
-0.34749335 0.27093714 0.62800002 7.096167e-39
-0.34629714 0.27093714 0.62800002 7.0050518e-39
-0.34749335 0.27213335 0.62800002 7.3713162e-39
-0.34629714 0.27213335 0.62800002 7.1876494e-39
-0.34510097 0.27213335 0.62800002 7.0039854e-39
-0.34445238 0.27256668 0.62900001 7.0958293e-39
-0.34325427 0.27256668 0.62900001 7.1876536e-39
-0.31081143 0.27634287 0.62400001 8.2961591e-39
-0.30962285 0.27634287 0.62400001 8.2039565e-39
-0.30843431 0.27634287 0.62400001 7.9284416e-39
-0.3072457 0.27634287 0.62400001 7.6515016e-39
-0.30605716 0.27634287 0.62400001 7.7422623e-39
-0.30486858 0.27634287 0.62400001 7.9259333e-39
-0.31200001 0.27753145 0.62400001 8.7553366e-39
-0.31081143 0.27753145 0.62400001 8.3880031e-39
-0.30962285 0.27753145 0.62400001 8.02101e-39
-0.30843431 0.27753145 0.62400001 7.7422665e-39
-0.3072457 0.27753145 0.62400001 7.4646062e-39
-0.30605716 0.27753145 0.62400001 7.5571578e-39
-0.30486858 0.27753145 0.62400001 7.7415476e-39
-0.30368 0.27753145 0.62400001 7.834102e-39
-0.29773712 0.27753145 0.62400001 7.8337279e-39
-0.29488668 0.27708668 0.62300003 7.9266494e-39
-0.29370001 0.27708668 0.62300003 7.9262962e-39
-0.3678686 0.27782667 0.62200004 6.5422758e-39
-0.36727336 0.27827334 0.62300003 6.5422744e-39
-0.31318855 0.27871999 0.62400001 8.4791057e-39
-0.31200001 0.27871999 0.62400001 9.1223143e-39
-0.31081143 0.27871999 0.62400001 8.4794658e-39
-0.30962285 0.27871999 0.62400001 7.9277241e-39
-0.30843431 0.27871999 0.62400001 7.6479003e-39
-0.3077381 0.27916667 0.625 7.3727595e-39
-0.30605716 0.27871999 0.62400001 7.4649593e-39
-0.30486858 0.27871999 0.62400001 7.5575165e-39
-0.30368 0.27871999 0.62400001 7.6504338e-39
-0.30249143 0.27871999 0.62400001 7.7422637e-39
-0.30130285 0.27871999 0.62400001 7.7422595e-39
-0.29963335 0.27827334 0.62300003 7.7418952e-39
-0.29892573 0.27871999 0.62400001 7.7426084e-39
-0.29773712 0.27871999 0.62400001 7.8344481e-39
-0.29607335 0.27827334 0.62300003 7.6511401e-39
-0.29488668 0.27827334 0.62300003 7.4674733e-39
-0.29370001 0.27827334 0.62300003 7.7422665e-39
-0.29251334 0.27827334 0.62300003 8.1096099e-39
-0.29132667 0.27827334 0.62300003 8.3858366e-39
-0.36668569 0.27811426 0.62 6.6355448e-39
-0.36550477 0.27811426 0.62 6.5437037e-39
-0.36608669 0.27946001 0.62300003 6.3603928e-39
-0.31318855 0.27990857 0.62400001 8.2036006e-39
-0.31200001 0.27990857 0.62400001 8.5712943e-39
-0.31031334 0.27946001 0.62300003 8.2032292e-39
-0.30962285 0.27990857 0.62400001 7.8344369e-39
-0.30843431 0.27990857 0.62400001 7.4649285e-39
-0.3072457 0.27990857 0.62400001 7.0972418e-39
-0.30605716 0.27990857 0.62400001 7.4653153e-39
-0.30486858 0.27990857 0.62400001 7.833023e-39
-0.30368 0.27990857 0.62400001 7.7419134e-39
-0.30200669 0.27946001 0.62300003 7.6507911e-39
-0.30130285 0.27990857 0.62400001 7.6504282e-39
-0.29963335 0.27946001 0.62300003 7.6500625e-39
-0.29892573 0.27990857 0.62400001 7.7422511e-39
-0.29726002 0.27946001 0.62300003 7.9266451e-39
-0.29607335 0.27946001 0.62300003 7.8348153e-39
-0.29488668 0.27946001 0.62300003 7.7429812e-39
-0.29370001 0.27946001 0.62300003 7.9259375e-39
-0.29251334 0.27946001 0.62300003 8.0177786e-39
-0.29132667 0.27946001 0.62300003 8.2018139e-39
-0.36609429 0.27884477 0.61900002 6.8188599e-39
-0.36550477 0.27929524 0.62 6.5433506e-39
-0.36549905 0.28019622 0.62200004 6.2674867e-39
-0.31318855 0.28109714 0.62400001 7.8362628e-39
-0.31200001 0.28109714 0.62400001 8.0195667e-39
-0.31031334 0.28064668 0.62300003 7.8355299e-39
-0.30962285 0.28109714 0.62400001 7.741891e-39
-0.30843431 0.28109714 0.62400001 7.2823435e-39
-0.3072457 0.28109714 0.62400001 6.8228171e-39
-0.30605716 0.28109714 0.62400001 7.465674e-39
-0.30486858 0.28109714 0.62400001 8.2003636e-39
-0.30368 0.28109714 0.62400001 7.9252228e-39
-0.30200669 0.28064668 0.62300003 7.6500695e-39
-0.30130285 0.28109714 0.62400001 7.6504226e-39
-0.29963335 0.28064668 0.62300003 7.6500639e-39
-0.29892573 0.28109714 0.62400001 7.8337349e-39
-0.29726002 0.28064668 0.62300003 8.0181247e-39
-0.29607335 0.28064668 0.62300003 8.0181275e-39
-0.29488668 0.28064668 0.62300003 8.1099644e-39
-0.29370001 0.28064668 0.62300003 8.0181303e-39
-0.29251334 0.28064668 0.62300003 8.0181317e-39
-0.29132667 0.28064668 0.62300003 8.1099686e-39
-0.29014 0.28064668 0.62300003 8.2017971e-39
-0.36786667 0.28047618 0.62 6.6355532e-39
-0.36609429 0.28002381 0.61900002 6.5426401e-39
-0.36550477 0.28047618 0.62 6.4515221e-39
-0.36549905 0.28138095 0.62200004 6.3593293e-39
