# .PCD v0.7 - Point Cloud Data file format
VERSION 0.7
FIELDS x y z rgb
SIZE 4 4 4 4
TYPE F F F F
COUNT 1 1 1 1
WIDTH 197
HEIGHT 1
VIEWPOINT 0 0 0 1 0 0 0
POINTS 197
DATA ascii
-0.21619047 -0.29238096 1 7.2831072e-39
-0.21492857 -0.2932581 1.003 7.8341118e-39
-0.2130181 -0.2932581 1.003 7.3756434e-39
-0.21047619 -0.29238096 1 7.0065035e-39
-0.20857142 -0.29238096 1 6.8228297e-39
-0.20666666 -0.29238096 1 6.7281258e-39
-0.21809524 -0.29047617 1 6.6366714e-39
-0.21619047 -0.29047617 1 6.82179e-39
-0.21492857 -0.29134762 1.003 7.0987188e-39
-0.2130181 -0.29134762 1.003 6.9139604e-39
-0.21047619 -0.29047617 1 6.7295677e-39
-0.20857142 -0.29047617 1 6.637012e-39
-0.20666666 -0.29047617 1 6.5444576e-39
-0.20476191 -0.29047617 1 6.4519046e-39
-0.22190475 -0.28857142 1 6.5437387e-39
-0.22 -0.28857142 1 6.4522634e-39
-0.21809524 -0.28857142 1 6.4526291e-39
-0.21683905 -0.28943714 1.003 6.3611593e-39
-0.21492857 -0.28943714 1.003 6.3604363e-39
-0.2130181 -0.28943714 1.003 6.3597132e-39
-0.21047619 -0.28857142 1 6.4515459e-39
-0.20857142 -0.28857142 1 6.3600663e-39
-0.20666666 -0.28857142 1 6.3597062e-39
-0.20476191 -0.28857142 1 6.3593475e-39
-0.20285714 -0.28857142 1 6.3589887e-39
-0.24022953 -0.28580669 0.99700004 4.6169421e-39
-0.23833048 -0.28580669 0.99700004 5.0757581e-39
-0.22 -0.28666666 1 6.2671504e-39
-0.21809524 -0.28666666 1 6.1753163e-39
-0.21683905 -0.28752667 1.003 6.2675134e-39
-0.21492857 -0.28752667 1.003 6.2678721e-39
-0.2130181 -0.28752667 1.003 6.2678721e-39
-0.21110763 -0.28752667 1.003 6.2678693e-39
-0.20919713 -0.28752667 1.003 6.2678679e-39
-0.20666666 -0.28666666 1 6.2675078e-39
-0.20476191 -0.28666666 1 6.2675078e-39
-0.20285714 -0.28666666 1 6.3600607e-39
-0.20095238 -0.28666666 1 6.2678665e-39
-0.24022953 -0.28390762 0.99700004 3.4973201e-39
-0.23833048 -0.28390762 0.99700004 4.2337865e-39
-0.21809524 -0.28476191 1 5.9912726e-39
-0.21683905 -0.28561619 1.003 6.0831123e-39
-0.21557143 -0.28647047 1.006 6.2667847e-39
-0.21365525 -0.28647047 1.006 6.1753093e-39
-0.21110763 -0.28561619 1.003 6.1756667e-39
-0.20919713 -0.28561619 1.003 6.1760254e-39
-0.20666666 -0.28476191 1 6.1756695e-39
-0.20476191 -0.28476191 1 6.2675064e-39
-0.20285714 -0.28476191 1 6.3593419e-39
-0.20034952 -0.28390762 0.99700004 6.359702e-39
-0.19845048 -0.28390762 0.99700004 6.3596992e-39
-0.23761334 -0.28116003 0.99400002 5.0552585e-39
-0.21867999 -0.28116003 0.99400002 5.4402386e-39
-0.21557143 -0.2845543 1.006 5.9901908e-39
-0.21365525 -0.2845543 1.006 6.0820291e-39
-0.21110763 -0.28370571 1.003 6.2657015e-39
-0.20919713 -0.28370571 1.003 6.5412094e-39
-0.20666666 -0.28285715 1 6.9085556e-39
-0.20476191 -0.28285715 1 6.6330547e-39
-0.20285714 -0.28285715 1 6.3575482e-39
-0.20034952 -0.28200859 0.99700004 6.3579083e-39
-0.19845048 -0.28200859 0.99700004 6.3582671e-39
-0.18571429 -0.28285715 1 7.0972726e-39
-0.18380952 -0.28285715 1 7.0976342e-39
-0.18135905 -0.28200859 0.99700004 7.3738609e-39
-0.17999999 -0.28285715 1 7.6500821e-39
-0.17809524 -0.28285715 1 7.466767e-39
-0.21110763 -0.28179523 1.003 6.3578873e-39
-0.20857142 -0.28095236 1 7.0018106e-39
-0.20666666 -0.28095236 1 7.6446633e-39
-0.20476191 -0.28095236 1 7.0018204e-39
-0.20224857 -0.28010955 0.99700004 6.3582545e-39
-0.19974667 -0.27926669 0.99400002 6.3578971e-39
-0.19785333 -0.27926669 0.99400002 6.3586146e-39
-0.18135905 -0.28010955 0.99700004 7.5578963e-39
-0.17946 -0.28010955 0.99700004 8.109261e-39
-0.17756096 -0.28010955 0.99700004 7.6504366e-39
-0.21813239 -0.27430382 0.98300004 4.7880337e-39
-0.21626002 -0.27430382 0.98300004 5.2478992e-39
-0.21438763 -0.27430382 0.98300004 5.7081809e-39
-0.20919713 -0.27988476 1.003 5.2544152e-39
-0.20728667 -0.27988476 1.003 5.0732596e-39
-0.20537619 -0.27988476 1.003 5.4409645e-39
-0.20285714 -0.27904761 1 5.9008594e-39
-0.20034952 -0.27821046 0.99700004 5.9919789e-39
-0.19785333 -0.27737334 0.99400002 6.0834556e-39
-0.19596002 -0.27737334 0.99400002 6.083457e-39
-0.1870562 -0.27821046 0.99700004 7.4631699e-39
-0.18571429 -0.27904761 1 7.1894655e-39
-0.1832581 -0.27821046 0.99700004 6.9132513e-39
-0.17946 -0.27821046 0.99700004 7.284538e-39
-0.17756096 -0.27821046 0.99700004 6.639886e-39
-0.17566191 -0.27821046 0.99700004 5.9956068e-39
-0.17324001 -0.27737334 0.99400002 6.6384609e-39
-0.22000477 -0.27243143 0.98300004 6.1770876e-39
-0.21813239 -0.27243143 0.98300004 5.7153808e-39
-0.21626002 -0.27243143 0.98300004 5.7132115e-39
-0.21438763 -0.27243143 0.98300004 5.8036275e-39
-0.20919713 -0.27797431 1.003 3.5909773e-39
-0.20728667 -0.27797431 1.003 2.5815029e-39
-0.20537619 -0.27797431 1.003 3.9597528e-39
-0.20285714 -0.27714285 1 5.4334115e-39
-0.20034952 -0.27631143 0.99700004 5.6213732e-39
-0.19785333 -0.27548 0.99400002 5.8068533e-39
-0.19596002 -0.27548 0.99400002 6.0845276e-39
-0.19028001 -0.27548 0.99400002 6.5444282e-39
-0.18838666 -0.27548 0.99400002 7.1879941e-39
-0.18761905 -0.27714285 1 7.9223263e-39
-0.18571429 -0.27714285 1 7.3727567e-39
-0.18380952 -0.27714285 1 6.8213906e-39
-0.18135905 -0.27631143 0.99700004 6.6370092e-39
-0.17946 -0.27631143 0.99700004 6.542301e-39
-0.17756096 -0.27631143 0.99700004 5.7129089e-39
-0.17324001 -0.27548 0.99400002 5.9927243e-39
-0.22000477 -0.27055904 0.98300004 6.084906e-39
-0.21746668 -0.26973334 0.98000002 5.8086764e-39
-0.2156 -0.26973334 0.98000002 5.8972777e-39
-0.21373333 -0.26973334 0.98000002 6.0827452e-39
-0.20790666 -0.27688953 1.006 4.7891421e-39
-0.20599048 -0.27688953 1.006 5.1539673e-39
-0.20285714 -0.2752381 1 5.6109644e-39
-0.19974667 -0.27358666 0.99400002 5.4369512e-39
-0.19725621 -0.27276096 0.99100006 5.3429927e-39
-0.19536857 -0.27276096 0.99100006 5.4355765e-39
-0.19009238 -0.2760638 1.003 5.2565606e-39
-0.18818191 -0.2760638 1.003 5.1676006e-39
-0.18627143 -0.2760638 1.003 5.6271438e-39
-0.18380952 -0.2752381 1 6.0866828e-39
-0.17999999 -0.2752381 1 6.1760156e-39
-0.17756096 -0.27441239 0.99700004 5.9916313e-39
-0.17513333 -0.27358666 0.99400002 5.8072429e-39
-0.17324001 -0.27358666 0.99400002 6.3611257e-39
-0.22000477 -0.26868665 0.98300004 6.0823962e-39
-0.21813239 -0.26868665 0.98300004 5.8983651e-39
-0.21626002 -0.26868665 0.98300004 6.0816746e-39
-0.21373333 -0.26786667 0.98000002 6.3586188e-39
-0.21186668 -0.26786667 0.98000002 6.8181578e-39
-0.20999999 -0.26786667 0.98000002 7.3709701e-39
-0.20813334 -0.26786667 0.98000002 6.9135918e-39
-0.20626667 -0.26786667 0.98000002 6.5458813e-39
-0.2044 -0.26786667 0.98000002 6.7291838e-39
-0.20728667 -0.27415332 1.003 7.0032511e-39
-0.20537619 -0.27415332 1.003 6.450799e-39
-0.20224857 -0.27251333 0.99700004 5.8976168e-39
-0.19914383 -0.27087334 0.99100006 5.3444346e-39
-0.19725621 -0.27087334 0.99100006 4.8845523e-39
-0.18818191 -0.27415332 1.003 2.3978207e-39
-0.18627143 -0.27415332 1.003 3.8675361e-39
-0.18270667 -0.27169335 0.99400002 5.4337758e-39
-0.17702667 -0.27169335 0.99400002 6.2689273e-39
-0.22000477 -0.26681429 0.98300004 6.2667875e-39
-0.21813239 -0.26681429 0.98300004 6.1731597e-39
-0.21626002 -0.26681429 0.98300004 6.4497438e-39
-0.21373333 -0.266 0.98000002 6.6348526e-39
-0.21186668 -0.266 0.98000002 6.9100031e-39
-0.20999999 -0.266 0.98000002 7.0969097e-39
-0.20813334 -0.266 0.98000002 6.729216e-39
-0.20626667 -0.266 0.98000002 6.3618628e-39
-0.2044 -0.266 0.98000002 6.452971e-39
-0.20253333 -0.266 0.98000002 6.544445e-39
-0.24296668 -0.265481 0.98500007 6.2675134e-39
-0.22000477 -0.26494193 0.98300004 6.4515417e-39
-0.21626002 -0.26494193 0.98300004 6.7263293e-39
-0.21373333 -0.26413333 0.98000002 7.0018372e-39
-0.21186668 -0.26413333 0.98000002 6.9100031e-39
-0.20999999 -0.26413333 0.98000002 6.910366e-39
-0.20813334 -0.26413333 0.98000002 6.5437471e-39
-0.20626667 -0.26413333 0.98000002 6.1760394e-39
-0.2044 -0.26413333 0.98000002 6.1756737e-39
-0.20191334 -0.2633248 0.97700006 6.1760282e-39
-0.20005238 -0.2633248 0.97700006 6.0845472e-39
-0.24296668 -0.26360479 0.98500007 6.3597006e-39
-0.21373333 -0.26226667 0.98000002 7.8333803e-39
-0.21186668 -0.26226667 0.98000002 7.4642447e-39
-0.20999999 -0.26226667 0.98000002 7.1869473e-39
-0.20813334 -0.26226667 0.98000002 6.8192508e-39
-0.20626667 -0.26226667 0.98000002 6.5437401e-39
-0.2044 -0.26226667 0.98000002 6.3597076e-39
-0.20191334 -0.26146382 0.97700006 6.1756723e-39
-0.20066667 -0.26226667 0.98000002 6.0834724e-39
-0.21186668 -0.2604 0.98000002 8.1117595e-39
-0.20999999 -0.2604 0.98000002 7.4667628e-39
-0.20813334 -0.2604 0.98000002 7.1894655e-39
-0.20626667 -0.2604 0.98000002 7.0036351e-39
-0.2044 -0.2604 0.98000002 6.6362861e-39
-0.20066667 -0.2604 0.98000002 6.1753093e-39
-0.1988 -0.2604 0.98000002 6.083471e-39
-0.2044 -0.25853333 0.98000002 6.820313e-39
-0.20066667 -0.25853333 0.98000002 6.451176e-39
-0.1988 -0.25853333 0.98000002 6.2678581e-39
-0.19693333 -0.25853333 0.98000002 6.1756597e-39
-0.19446953 -0.25774193 0.97700006 6.1745905e-39
-0.19693333 -0.25666666 0.98000002 6.4518934e-39
-0.19260858 -0.25402001 0.97700006 6.7295845e-39
-0.19260858 -0.25215906 0.97700006 6.638814e-39
-0.19074763 -0.25215906 0.97700006 6.8214032e-39
-0.19260858 -0.25029811 0.97700006 6.4522634e-39
