# .PCD v0.7 - Point Cloud Data file format
VERSION 0.7
FIELDS x y z rgb
SIZE 4 4 4 4
TYPE F F F F
COUNT 1 1 1 1
WIDTH 147
HEIGHT 1
VIEWPOINT 0 0 0 1 0 0 0
POINTS 147
DATA ascii
-0.014846667 -0.17903335 0.91700006 3.2225142e-39
-0.013100001 -0.17903335 0.91700006 2.5757225e-39
-0.014895238 -0.17786667 0.92000002 4.0515532e-39
-0.014927619 -0.17649715 0.92200005 5.1596874e-39
-0.013171429 -0.17649715 0.92200005 4.7012148e-39
-0.02037143 -0.17625715 0.93000007 5.3462479e-39
-0.018540001 -0.17568858 0.92700005 5.5299287e-39
-0.016738096 -0.17530954 0.92500007 5.8976378e-39
-0.014976191 -0.17530954 0.92500007 6.2656819e-39
-0.013214286 -0.17530954 0.92500007 5.8072064e-39
-0.025740953 -0.17486095 0.93200004 5.2540579e-39
-0.023914289 -0.17448571 0.93000007 5.0700282e-39
-0.022142859 -0.17448571 0.93000007 4.9781969e-39
-0.02037143 -0.17448571 0.93000007 5.0703953e-39
-0.018540001 -0.17392285 0.92700005 5.1629637e-39
-0.016774286 -0.17392285 0.92700005 5.438487e-39
-0.014976191 -0.17354764 0.92500007 5.6235747e-39
-0.013242858 -0.17392285 0.92700005 5.4395267e-39
-0.011477144 -0.17392285 0.92700005 5.3473283e-39
-0.027516192 -0.17308572 0.93200004 5.0707484e-39
-0.025740953 -0.17308572 0.93200004 4.8867187e-39
-0.023965714 -0.17308572 0.93200004 4.7945231e-39
-0.022142859 -0.17271429 0.93000007 4.7941671e-39
-0.02037143 -0.17271429 0.93000007 4.7941685e-39
-0.0186 -0.17271429 0.93000007 4.8860139e-39
-0.016774286 -0.17215715 0.92700005 4.9778606e-39
-0.015008572 -0.17215715 0.92700005 5.0696834e-39
-0.013242858 -0.17215715 0.92700005 5.1618651e-39
-0.011477144 -0.17215715 0.92700005 5.2537034e-39
-0.032665718 -0.17039144 0.92700005 5.4388079e-39
-0.0309 -0.17039144 0.92700005 5.1622308e-39
-0.029228574 -0.17094286 0.93000007 4.8860054e-39
-0.027457144 -0.17094286 0.93000007 4.701617e-39
-0.025685715 -0.17094286 0.93000007 4.5175859e-39
-0.023914289 -0.17094286 0.93000007 4.6090612e-39
-0.022142859 -0.17094286 0.93000007 4.7008967e-39
-0.02037143 -0.17094286 0.93000007 4.6090612e-39
-0.0186 -0.17094286 0.93000007 4.5172299e-39
-0.016828572 -0.17094286 0.93000007 4.7012639e-39
-0.015008572 -0.17039144 0.92700005 4.9771221e-39
-0.013242858 -0.17039144 0.92700005 5.0700282e-39
-0.011477144 -0.17039144 0.92700005 5.1622294e-39
-0.034357145 -0.16826192 0.92500007 4.8834873e-39
-0.03259524 -0.16826192 0.92500007 4.7005366e-39
-0.0309 -0.16862571 0.92700005 4.6097801e-39
-0.023914289 -0.16917145 0.93000007 4.3324771e-39
-0.022142859 -0.16917145 0.93000007 4.6086997e-39
-0.02037143 -0.16917145 0.93000007 4.3328331e-39
-0.0186 -0.16917145 0.93000007 4.149525e-39
-0.016828572 -0.16917145 0.93000007 4.5165125e-39
-0.015057144 -0.16917145 0.93000007 4.8849292e-39
-0.013285715 -0.16917145 0.93000007 4.978557e-39
-0.011514287 -0.16917145 0.93000007 5.1625937e-39
-0.03259524 -0.16650002 0.92500007 4.4257476e-39
-0.0309 -0.16686 0.92700005 4.4250315e-39
-0.029134287 -0.16686 0.92700005 4.5161383e-39
-0.02037143 -0.16740002 0.93000007 4.6090542e-39
-0.0186 -0.16740002 0.93000007 4.425386e-39
-0.016828572 -0.16740002 0.93000007 4.6087025e-39
-0.015008572 -0.16686 0.92700005 4.8849292e-39
-0.013285715 -0.16740002 0.93000007 4.8860097e-39
-0.011477144 -0.16686 0.92700005 4.9792857e-39
-0.0097428579 -0.16740002 0.93000007 5.2544404e-39
-0.03259524 -0.1647381 0.92500007 4.2410018e-39
-0.0309 -0.1650943 0.92700005 4.3328387e-39
-0.029134287 -0.1650943 0.92700005 4.5165027e-39
-0.0186 -0.16562858 0.93000007 4.7923693e-39
-0.016828572 -0.16562858 0.93000007 4.7923693e-39
-0.015057144 -0.16562858 0.93000007 4.884925e-39
-0.013242858 -0.1650943 0.92700005 4.8856453e-39
-0.011477144 -0.1650943 0.92700005 4.8856523e-39
-0.0097114285 -0.1650943 0.92700005 5.0693289e-39
-0.0079457145 -0.1650943 0.92700005 5.3459046e-39
0.022142859 -0.16562858 0.93000007 6.0852605e-39
0.023914289 -0.16562858 0.93000007 5.8068771e-39
0.025685715 -0.16562858 0.93000007 5.7150332e-39
0.027457144 -0.16562858 0.93000007 5.7143214e-39
0.029228574 -0.16562858 0.93000007 5.2547894e-39
-0.032489527 -0.16244763 0.92200005 4.0566147e-39
-0.030833337 -0.16297621 0.92500007 4.2406458e-39
-0.02907143 -0.16297621 0.92500007 4.4246742e-39
-0.0097114285 -0.16332857 0.92700005 4.885295e-39
-0.0079457145 -0.16332857 0.92700005 5.1618735e-39
-0.00618 -0.16332857 0.92700005 5.2551397e-39
-0.004414286 -0.16332857 0.92700005 5.439168e-39
0.023914289 -0.16385716 0.93000007 5.8997958e-39
0.025685715 -0.16385716 0.93000007 5.899793e-39
0.027457144 -0.16385716 0.93000007 5.8997958e-39
0.029228574 -0.16385716 0.93000007 5.6235747e-39
0.031000003 -0.16385716 0.93000007 5.4391848e-39
-0.030833337 -0.16121429 0.92500007 4.0566147e-39
-0.02907143 -0.16121429 0.92500007 4.3328387e-39
-0.0061466671 -0.16069144 0.92200005 5.0718302e-39
-0.0043904763 -0.16069144 0.92200005 5.1633028e-39
-0.0026200002 -0.15982001 0.91700006 4.9789115e-39
-0.00087333337 -0.15982001 0.91700006 4.8856383e-39
0.029228574 -0.16208573 0.93000007 5.9916327e-39
-0.032419048 -0.15859048 0.92000002 3.7800264e-39
-0.0061466671 -0.15893523 0.92200005 5.1629511e-39
-0.0043904763 -0.15893523 0.92200005 5.07111e-39
-0.0026200002 -0.15807334 0.91700006 4.9789101e-39
-0.00087333337 -0.15807334 0.91700006 4.8877907e-39
0.00087619049 -0.15859048 0.92000002 4.2377662e-39
0.0026285714 -0.15859048 0.92000002 3.5895073e-39
0.0043809521 -0.15859048 0.92000002 2.577135e-39
0.0061333333 -0.15859048 0.92000002 1.6537578e-39
0.0078857141 -0.15859048 0.92000002 2.2973237e-39
0.0096380953 -0.15859048 0.92000002 2.9516993e-39
0.011477144 -0.15979715 0.92700005 7.0244359e-39
-0.0079028569 -0.15717906 0.92200005 5.5292127e-39
-0.0061466671 -0.15717906 0.92200005 5.2547838e-39
-0.0043809521 -0.1568381 0.92000002 5.0707512e-39
-0.0026285714 -0.1568381 0.92000002 4.9789129e-39
-0.00087619049 -0.1568381 0.92000002 4.9789115e-39
0.00087619049 -0.1568381 0.92000002 4.4250273e-39
0.0026285714 -0.1568381 0.92000002 3.9611639e-39
0.0043809521 -0.1568381 0.92000002 3.5894961e-39
0.0061333333 -0.1568381 0.92000002 3.2189185e-39
0.0078857141 -0.1568381 0.92000002 3.0323706e-39
0.0096380953 -0.1568381 0.92000002 2.8602281e-39
0.011477144 -0.15803143 0.92700005 8.3155195e-39
0.013242858 -0.15803143 0.92700005 1.3723048e-38
-0.032313332 -0.15458 0.91700006 3.5956352e-39
-0.0078857141 -0.15508571 0.92000002 6.174931e-39
-0.0061333333 -0.15508571 0.92000002 5.6217656e-39
-0.0043809521 -0.15508571 0.92000002 5.0707526e-39
-0.0026285714 -0.15508571 0.92000002 4.9785584e-39
-0.00087619049 -0.15508571 0.92000002 4.8863614e-39
0.00087619049 -0.15508571 0.92000002 4.6090598e-39
0.0026285714 -0.15508571 0.92000002 4.3328219e-39
0.0043809521 -0.15508571 0.92000002 4.2409738e-39
0.0061333333 -0.15508571 0.92000002 4.149483e-39
0.0078857141 -0.15508571 0.92000002 3.9640043e-39
0.0096590482 -0.15542287 0.92200005 3.7789474e-39
0.011415238 -0.15542287 0.92200005 8.49848e-39
0.013214286 -0.15592858 0.92500007 1.3266744e-38
-0.0043809521 -0.15333334 0.92000002 5.1625881e-39
-0.0026285714 -0.15333334 0.92000002 4.9785584e-39
-0.00087619049 -0.15333334 0.92000002 4.8867215e-39
0.00087619049 -0.15333334 0.92000002 4.7934497e-39
0.0026285714 -0.15333334 0.92000002 4.70161e-39
0.0043809521 -0.15333334 0.92000002 4.8852768e-39
0.0061333333 -0.15333334 0.92000002 5.0682261e-39
0.0078857141 -0.15333334 0.92000002 4.8841936e-39
-0.031890478 -0.13704287 0.90500003 4.1491621e-39
-0.030266669 -0.13749716 0.90800005 4.1491607e-39
-0.031890478 -0.13531905 0.90500003 4.5168628e-39
