# .PCD v0.7 - Point Cloud Data file format
VERSION 0.7
FIELDS x y z rgb
SIZE 4 4 4 4
TYPE F F F F
COUNT 1 1 1 1
WIDTH 135
HEIGHT 1
VIEWPOINT 0 0 0 1 0 0 0
POINTS 135
DATA ascii
-0.55531716 -0.21276858 0.92700005 8.0170457e-39
-0.55884856 -0.21100286 0.92700005 7.6496925e-39
-0.55588096 -0.21054763 0.92500007 7.8337293e-39
-0.55764288 -0.20878573 0.92500007 7.7422497e-39
-0.55588096 -0.20878573 0.92500007 8.0184736e-39
-0.55411911 -0.20878573 0.92500007 8.2028621e-39
-0.5523572 -0.20878573 0.92500007 8.018475e-39
-0.54880959 -0.20810857 0.92200005 7.834088e-39
-0.54705334 -0.20810857 0.92200005 7.9259263e-39
-0.54529715 -0.20810857 0.92200005 7.9255605e-39
-0.55764288 -0.20702383 0.92500007 7.9259235e-39
-0.5540781 -0.2063524 0.92200005 8.1110308e-39
-0.55232197 -0.2063524 0.92200005 8.3865415e-39
-0.55056578 -0.2063524 0.92200005 8.2032334e-39
-0.54880959 -0.2063524 0.92200005 8.1099616e-39
-0.54705334 -0.2063524 0.92200005 8.0181261e-39
-0.55583429 -0.20459621 0.92200005 8.0181205e-39
-0.5540781 -0.20459621 0.92200005 8.2939885e-39
-0.55232197 -0.20459621 0.92200005 8.5702195e-39
-0.55056578 -0.20459621 0.92200005 8.2943627e-39
-0.54880959 -0.20459621 0.92200005 8.1103302e-39
-0.54236186 -0.20415238 0.92000002 8.1096001e-39
-0.54060954 -0.20415238 0.92000002 8.109956e-39
-0.55583429 -0.20284 0.92200005 8.2014314e-39
-0.53710002 -0.19999334 0.91700006 8.2028761e-39
-0.53535336 -0.19999334 0.91700006 8.2032306e-39
-0.53244287 -0.19955714 0.91500002 8.3868988e-39
-0.53592861 -0.19781429 0.91500002 8.1110378e-39
-0.53535336 -0.19824667 0.91700006 8.1110364e-39
-0.53244287 -0.19781429 0.91500002 8.2032292e-39
-0.53069997 -0.19781429 0.91500002 8.3869044e-39
-0.53592861 -0.19607143 0.91500002 8.0181247e-39
-0.53418571 -0.19607143 0.91500002 8.1099602e-39
-0.53244287 -0.19607143 0.91500002 8.1106777e-39
-0.53592861 -0.19432856 0.91500002 7.9255718e-39
-0.53418571 -0.19432856 0.91500002 8.109963e-39
-0.53127909 -0.19390382 0.91300005 8.110326e-39
-0.53592861 -0.19258572 0.91500002 8.017766e-39
-0.53301811 -0.19216476 0.91300005 8.1099672e-39
-0.53127909 -0.19216476 0.91300005 8.1099756e-39
-0.47060001 -0.19153333 0.91000003 8.017773e-39
-0.46886668 -0.19153333 0.91000003 8.1092498e-39
-0.53823525 -0.19042572 0.91300005 8.2943319e-39
-0.5347572 -0.19042572 0.91300005 8.1099616e-39
-0.53301811 -0.19042572 0.91300005 8.1099644e-39
-0.52953333 -0.18980001 0.91000003 8.1099672e-39
-0.5347572 -0.18868668 0.91300005 8.0184877e-39
-0.53126669 -0.18806666 0.91000003 8.1103203e-39
-0.53646672 -0.18633334 0.91000003 7.9266367e-39
-0.53473336 -0.18633334 0.91000003 7.8348083e-39
-0.53299999 -0.18633334 0.91000003 8.0184863e-39
-0.53009903 -0.18592383 0.90800005 8.2021572e-39
-0.53528762 -0.1841943 0.90800005 8.1103007e-39
-0.53355813 -0.1841943 0.90800005 8.0188338e-39
-0.53182858 -0.1841943 0.90800005 8.1106805e-39
-0.51170003 -0.18318 0.90300006 8.1103021e-39
-0.48074004 -0.18318 0.90300006 7.8337405e-39
-0.47835717 -0.18358572 0.90500003 7.7415476e-39
-0.47663334 -0.18358572 0.90500003 7.5564417e-39
-0.47146189 -0.18358572 0.90500003 7.8326573e-39
-0.53528762 -0.18246478 0.90800005 8.2950577e-39
-0.53355813 -0.18246478 0.90800005 8.2943459e-39
-0.53007144 -0.18186191 0.90500003 8.2025174e-39
-0.52834761 -0.18186191 0.90500003 8.2025188e-39
-0.47730002 -0.18146001 0.90300006 7.741905e-39
-0.47558004 -0.18146001 0.90300006 7.5571578e-39
-0.53351903 -0.1801381 0.90500003 8.2947088e-39
-0.53179526 -0.1801381 0.90500003 8.2947116e-39
-0.53007144 -0.1801381 0.90500003 8.2947144e-39
-0.53524286 -0.17841429 0.90500003 8.2950661e-39
-0.53351903 -0.17841429 0.90500003 8.2950675e-39
-0.53179526 -0.17841429 0.90500003 8.3865471e-39
-0.52890003 -0.17802 0.90300006 8.4783854e-39
-0.52718008 -0.17802 0.90300006 8.5702209e-39
-0.53062004 -0.1763 0.90300006 8.4794588e-39
-0.52890003 -0.1763 0.90300006 8.5709398e-39
-0.52718008 -0.1763 0.90300006 8.6627753e-39
-0.51968002 -0.16810668 0.89600003 8.2932641e-39
-0.51797336 -0.16810668 0.89600003 8.387266e-39
-0.5162667 -0.16810668 0.89600003 8.4787441e-39
-0.51456004 -0.16810668 0.89600003 8.38691e-39
-0.51285338 -0.16810668 0.89600003 8.3861912e-39
-0.51000577 -0.16773143 0.89400005 8.2939955e-39
-0.50830287 -0.16773143 0.89400005 8.2021516e-39
-0.50660002 -0.16773143 0.89400005 8.2939801e-39
-0.46573147 -0.16773143 0.89400005 8.2950759e-39
-0.46062288 -0.16773143 0.89400005 8.2028831e-39
-0.51968002 -0.1664 0.89600003 8.4783742e-39
-0.51797336 -0.1664 0.89600003 8.3869072e-39
-0.5162667 -0.1664 0.89600003 8.3869086e-39
-0.51456004 -0.1664 0.89600003 8.38691e-39
-0.51170856 -0.16602859 0.89400005 8.3865513e-39
-0.51000577 -0.16602859 0.89400005 8.2025216e-39
-0.50830287 -0.16602859 0.89400005 8.1103217e-39
-0.50490004 -0.16547143 0.89100003 8.2032292e-39
-0.50320292 -0.16547143 0.89100003 8.3858268e-39
-0.51341146 -0.16432571 0.89400005 8.4787469e-39
-0.51170856 -0.16432571 0.89400005 8.3869128e-39
-0.50829434 -0.1637743 0.89100003 8.2943613e-39
-0.50659716 -0.1637743 0.89100003 8.2939997e-39
-0.50376666 -0.16340667 0.88900006 8.2939969e-39
-0.50207341 -0.16340667 0.88900006 8.3858338e-39
-0.51170856 -0.16262287 0.89400005 8.4783882e-39
-0.50829434 -0.16207714 0.89100003 8.4780309e-39
-0.50546002 -0.16171335 0.88900006 8.4776693e-39
-0.50376666 -0.16171335 0.88900006 8.4776665e-39
-0.50207341 -0.16171335 0.88900006 8.4780253e-39
-0.50999147 -0.16038001 0.89100003 8.6620578e-39
-0.50829434 -0.16038001 0.89100003 8.5702237e-39
-0.50546002 -0.16002001 0.88900006 8.5702209e-39
-0.50263333 -0.15966 0.88700002 8.5705782e-39
-0.50094384 -0.15966 0.88700002 8.6627697e-39
-0.50999147 -0.15868285 0.89100003 8.8457302e-39
-0.50829434 -0.15868285 0.89100003 8.7542548e-39
-0.50432283 -0.15797047 0.88700002 8.7546122e-39
-0.50263333 -0.15797047 0.88700002 8.7553282e-39
-0.50094384 -0.15797047 0.88700002 8.8468022e-39
-0.49925432 -0.15797047 0.88700002 8.8468008e-39
-0.5088467 -0.15663335 0.88900006 8.8468092e-39
-0.50601238 -0.15628095 0.88700002 9.0315564e-39
-0.50432283 -0.15628095 0.88700002 9.2163022e-39
-0.50263333 -0.15628095 0.88700002 9.0319137e-39
-0.49924955 -0.15575239 0.88400006 8.9397181e-39
-0.50601238 -0.15459143 0.88700002 9.2177371e-39
-0.50432283 -0.15459143 0.88700002 9.6754824e-39
-0.50093335 -0.15406859 0.88400006 9.4003375e-39
-0.49924955 -0.15406859 0.88400006 9.1244695e-39
-0.4706248 -0.15406859 0.88400006 8.0181275e-39
-0.49924955 -0.15238477 0.88400006 8.8486085e-39
-0.49756575 -0.15238477 0.88400006 9.0322752e-39
-0.49644002 -0.15036 0.88200003 9.0319137e-39
-0.49476004 -0.15036 0.88200003 9.4903695e-39
-0.49644002 -0.14868 0.88200003 8.5705824e-39
-0.49476004 -0.14868 0.88200003 8.9382789e-39
-0.48860955 -0.14834286 0.88000005 8.4776581e-39
