# .PCD v0.7 - Point Cloud Data file format
VERSION 0.7
FIELDS x y z rgb
SIZE 4 4 4 4
TYPE F F F F
COUNT 1 1 1 1
WIDTH 983
HEIGHT 1
VIEWPOINT 0 0 0 1 0 0 0
POINTS 983
DATA ascii
-0.14601335 -0.06705334 0.65800005 1.230885e-38
-0.14476001 -0.06705334 0.65800005 1.2401043e-38
-0.14328857 -0.066951431 0.65700001 1.2492161e-38
-0.14203715 -0.066951431 0.65700001 1.258328e-38
-0.14100002 -0.06705334 0.65800005 1.2675117e-38
-0.13974668 -0.06705334 0.65800005 1.2675477e-38
-0.13891429 -0.067257144 0.66000003 1.2767316e-38
-0.13765715 -0.067257144 0.66000003 1.2492172e-38
-0.1364 -0.067257144 0.66000003 1.2308864e-38
-0.13514286 -0.067257144 0.66000003 1.2034079e-38
-0.15423334 -0.066100001 0.66100001 9.652085e-39
-0.15274286 -0.066 0.66000003 1.0107664e-38
-0.15148573 -0.066 0.66000003 1.0655438e-38
-0.15022857 -0.066 0.66000003 1.1205726e-38
-0.14897144 -0.066 0.66000003 1.184822e-38
-0.14726667 -0.065800004 0.65800005 1.212373e-38
-0.14601335 -0.065800004 0.65800005 1.2491071e-38
-0.14476001 -0.065800004 0.65800005 1.2582906e-38
-0.14328857 -0.065700002 0.65700001 1.2674743e-38
-0.14203715 -0.065700002 0.65700001 1.2674745e-38
-0.14100002 -0.065800004 0.65800005 1.276658e-38
-0.13974668 -0.065800004 0.65800005 1.2858058e-38
-0.13849334 -0.065800004 0.65800005 1.2858057e-38
-0.13765715 -0.066 0.66000003 1.276622e-38
-0.1364 -0.066 0.66000003 1.2582909e-38
-0.13534762 -0.066100001 0.66100001 1.239924e-38
-0.13408858 -0.066100001 0.66100001 1.2123734e-38
-0.13282953 -0.066100001 0.66100001 1.175783e-38
-0.15525715 -0.064742863 0.66000003 9.8296589e-39
-0.15400001 -0.064742863 0.66000003 1.047178e-38
-0.15228 -0.064546667 0.65800005 1.0930229e-38
-0.15102668 -0.064546667 0.65800005 1.1388685e-38
-0.14977334 -0.064546667 0.65800005 1.1755664e-38
-0.14829428 -0.064448565 0.65700001 1.2214845e-38
-0.14704286 -0.064448565 0.65700001 1.2398522e-38
-0.14556953 -0.064350478 0.65600002 1.2674026e-38
-0.14432001 -0.064350478 0.65600002 1.2766216e-38
-0.14307047 -0.064350478 0.65600002 1.2858053e-38
-0.14182095 -0.064350478 0.65600002 1.2858053e-38
-0.14078571 -0.064448565 0.65700001 1.294989e-38
-0.13953428 -0.064448565 0.65700001 1.2949891e-38
-0.13849334 -0.064546667 0.65800005 1.3041728e-38
-0.13724001 -0.064546667 0.65800005 1.2949892e-38
-0.13598667 -0.064546667 0.65800005 1.2949894e-38
-0.13514286 -0.064742863 0.66000003 1.2766223e-38
-0.13388571 -0.064742863 0.66000003 1.258255e-38
-0.13282953 -0.06484095 0.66100001 1.2307761e-38
-0.13196859 -0.065037146 0.66300005 1.2032979e-38
-0.13070573 -0.065037146 0.66300005 1.1758197e-38
-0.12944287 -0.065037146 0.66300005 1.157669e-38
-0.15604001 -0.063293338 0.65800005 9.6438383e-39
-0.15455143 -0.063197143 0.65700001 1.0194481e-38
-0.1533 -0.063197143 0.65700001 1.0836961e-38
-0.15204857 -0.063197143 0.65700001 1.1204652e-38
-0.15079714 -0.063197143 0.65700001 1.1664188e-38
-0.1493181 -0.063100956 0.65600002 1.2031172e-38
-0.14806858 -0.063100956 0.65600002 1.2398519e-38
-0.14681906 -0.063100956 0.65600002 1.2490362e-38
-0.14556953 -0.063100956 0.65600002 1.2674026e-38
-0.14432001 -0.063100956 0.65600002 1.2765856e-38
-0.14307047 -0.063100956 0.65600002 1.2949527e-38
-0.14182095 -0.063100956 0.65600002 1.2949527e-38
-0.14057143 -0.063100956 0.65600002 1.3041722e-38
-0.13932191 -0.063100956 0.65600002 1.3041725e-38
-0.13807237 -0.063100956 0.65600002 1.3133922e-38
-0.13682286 -0.063100956 0.65600002 1.3133566e-38
-0.13577999 -0.063197143 0.65700001 1.3133566e-38
-0.13452858 -0.063197143 0.65700001 1.2949895e-38
-0.13348001 -0.063293338 0.65800005 1.2858055e-38
-0.13222668 -0.063293338 0.65800005 1.2674739e-38
-0.13157047 -0.063581906 0.66100001 1.2491785e-38
-0.13050859 -0.063678101 0.66200006 1.2215562e-38
-0.12924762 -0.063678101 0.66200006 1.1939706e-38
-0.12856668 -0.063966669 0.66500002 1.1300097e-38
-0.12730001 -0.063966669 0.66500002 1.0752338e-38
-0.12603334 -0.063966669 0.66500002 9.6560787e-39
-0.15705428 -0.061945714 0.65700001 9.4598016e-39
-0.15580286 -0.061945714 0.65700001 1.0102283e-38
-0.15431619 -0.061851427 0.65600002 1.0653289e-38
-0.15283334 -0.061757144 0.65500003 1.1296133e-38
-0.15181714 -0.061851427 0.65600002 1.1571994e-38
-0.15056762 -0.061851427 0.65600002 1.1938977e-38
-0.14909048 -0.061757144 0.65500003 1.2214484e-38
-0.14784285 -0.061757144 0.65500003 1.2581829e-38
-0.14659524 -0.061757144 0.65500003 1.2673666e-38
-0.14534763 -0.061757144 0.65500003 1.27655e-38
-0.14410001 -0.061757144 0.65500003 1.2857332e-38
-0.1428524 -0.061757144 0.65500003 1.3041003e-38
-0.14160477 -0.061757144 0.65500003 1.3041361e-38
-0.14035714 -0.061757144 0.65500003 1.3133198e-38
-0.13910952 -0.061757144 0.65500003 1.3133199e-38
-0.13807237 -0.061851427 0.65600002 1.3225036e-38
-0.13661429 -0.061757144 0.65500003 1.3225039e-38
-0.13557334 -0.061851427 0.65600002 1.3316881e-38
-0.13432382 -0.061851427 0.65600002 1.322577e-38
-0.13327713 -0.061945714 0.65700001 1.3133925e-38
-0.13222668 -0.062040005 0.65800005 1.3042081e-38
-0.13097335 -0.062040005 0.65800005 1.2949887e-38
-0.13011429 -0.062228575 0.66000003 1.2582545e-38
-0.12905239 -0.062322859 0.66100001 1.2306685e-38
-0.12818 -0.062511429 0.66300005 1.1755679e-38
-0.12691715 -0.062511429 0.66300005 1.1206833e-38
-0.1256543 -0.062511429 0.66300005 1.0933494e-38
-0.12439144 -0.062511429 0.66300005 1.0663744e-38
-0.15705428 -0.060694285 0.65700001 9.8267666e-39
-0.15580286 -0.060694285 0.65700001 1.0469611e-38
-0.15408096 -0.060509525 0.65500003 1.0928784e-38
-0.15283334 -0.060509525 0.65500003 1.1479799e-38
-0.15158573 -0.060509525 0.65500003 1.1755306e-38
-0.1503381 -0.060509525 0.65500003 1.2030813e-38
-0.14909048 -0.060509525 0.65500003 1.2306321e-38
-0.14739144 -0.060324769 0.65300006 1.2581825e-38
-0.14614764 -0.060324769 0.65300006 1.2765494e-38
-0.14490382 -0.060324769 0.65300006 1.2857331e-38
-0.14366001 -0.060324769 0.65300006 1.2949169e-38
-0.14241621 -0.060324769 0.65300006 1.3041003e-38
-0.14117239 -0.060324769 0.65300006 1.3041002e-38
-0.13992859 -0.060324769 0.65300006 1.3132837e-38
-0.13910952 -0.060509525 0.65500003 1.3132837e-38
-0.13786191 -0.060509525 0.65500003 1.3224674e-38
-0.13661429 -0.060509525 0.65500003 1.3224676e-38
-0.13536668 -0.060509525 0.65500003 1.3316525e-38
-0.13432382 -0.060601905 0.65600002 1.3224704e-38
-0.13327713 -0.060694285 0.65700001 1.3225049e-38
-0.13202572 -0.060694285 0.65700001 1.3225035e-38
-0.13097335 -0.060786668 0.65800005 1.3317229e-38
-0.13011429 -0.060971431 0.66000003 1.2858051e-38
-0.12885715 -0.060971431 0.66000003 1.2490352e-38
-0.12798668 -0.061156195 0.66200006 1.2031177e-38
-0.12672572 -0.061156195 0.66200006 1.1572363e-38
-0.12546477 -0.061156195 0.66200006 1.1206819e-38
-0.12439144 -0.061248574 0.66300005 1.0841296e-38
-0.12312857 -0.061248574 0.66300005 9.5624411e-39
-0.15830572 -0.059442859 0.65700001 9.5516259e-39
-0.15705428 -0.059442859 0.65700001 1.0194104e-38
-0.15556572 -0.059352383 0.65600002 1.0928786e-38
-0.15408096 -0.059261907 0.65500003 1.1296126e-38
-0.15236668 -0.059080955 0.65300006 1.1663468e-38
-0.15158573 -0.059261907 0.65500003 1.1938976e-38
-0.14987907 -0.059080955 0.65300006 1.2214483e-38
-0.14863525 -0.059080955 0.65300006 1.2398155e-38
-0.14739144 -0.059080955 0.65300006 1.267366e-38
-0.14614764 -0.059080955 0.65300006 1.285733e-38
-0.14490382 -0.059080955 0.65300006 1.3041002e-38
-0.14366001 -0.059080955 0.65300006 1.3041003e-38
-0.14219809 -0.058990479 0.65200001 1.3041002e-38
-0.14117239 -0.059080955 0.65300006 1.3132836e-38
-0.13992859 -0.059080955 0.65300006 1.3224672e-38
-0.13868478 -0.059080955 0.65300006 1.3224672e-38
-0.13744096 -0.059080955 0.65300006 1.3224673e-38
-0.13619716 -0.059080955 0.65300006 1.3224674e-38
-0.13536668 -0.059261907 0.65500003 1.3316517e-38
-0.13411906 -0.059261907 0.65500003 1.3316525e-38
-0.13307428 -0.059352383 0.65600002 1.3408352e-38
-0.13182476 -0.059352383 0.65600002 1.3500181e-38
-0.13077429 -0.059442859 0.65700001 1.3684211e-38
-0.12972 -0.059533339 0.65800005 1.3225392e-38
-0.12846668 -0.059533339 0.65800005 1.2765857e-38
-0.12779333 -0.059804764 0.66100001 1.2306322e-38
-0.1265343 -0.059804764 0.66100001 1.1938982e-38
-0.12546477 -0.059895243 0.66200006 1.1479806e-38
-0.12420382 -0.059895243 0.66200006 1.10228e-38
-0.12294286 -0.059895243 0.66200006 1.0199889e-38
-0.15806477 -0.058102861 0.65600002 9.8267638e-39
-0.15681525 -0.058102861 0.65600002 1.0377771e-38
-0.15532857 -0.058014289 0.65500003 1.102062e-38
-0.15361048 -0.057837147 0.65300006 1.1296126e-38
-0.15236668 -0.057837147 0.65300006 1.1663468e-38
-0.15112287 -0.057837147 0.65300006 1.1938975e-38
-0.14987907 -0.057837147 0.65300006 1.2214481e-38
-0.14863525 -0.057837147 0.65300006 1.2398154e-38
-0.14739144 -0.057837147 0.65300006 1.267366e-38
-0.14592381 -0.057748571 0.65200001 1.2949166e-38
-0.1446819 -0.057748571 0.65200001 1.3224673e-38
-0.14343999 -0.057748571 0.65200001 1.3224674e-38
-0.14219809 -0.057748571 0.65200001 1.3316508e-38
-0.14095619 -0.057748571 0.65200001 1.3316507e-38
-0.13971429 -0.057748571 0.65200001 1.3316507e-38
-0.13847238 -0.057748571 0.65200001 1.3224672e-38
-0.13744096 -0.057837147 0.65300006 1.3224673e-38
-0.13619716 -0.057837147 0.65300006 1.331651e-38
-0.13495335 -0.057837147 0.65300006 1.3500181e-38
-0.13370954 -0.057837147 0.65300006 1.3408347e-38
-0.13287142 -0.058014289 0.65500003 1.3408345e-38
-0.13182476 -0.058102861 0.65600002 1.3500179e-38
-0.13057524 -0.058102861 0.65600002 1.3500538e-38
-0.12952286 -0.05819143 0.65700001 1.3133196e-38
-0.12846668 -0.058280002 0.65800005 1.2857691e-38
-0.12760001 -0.058457144 0.66000003 1.2398156e-38
-0.1265343 -0.058545712 0.66100001 1.2030812e-38
-0.12527524 -0.058545712 0.66100001 1.1663468e-38
-0.12420382 -0.058634292 0.66200006 1.1204665e-38
-0.12294286 -0.058634292 0.66200006 1.0472866e-38
-0.12168191 -0.058634292 0.66200006 9.8347022e-39
-0.15955715 -0.056939997 0.65700001 9.3675863e-39
-0.15806477 -0.056853335 0.65600002 1.0102268e-38
-0.15681525 -0.056853335 0.65600002 1.0561442e-38
-0.1548543 -0.056593336 0.65300006 1.1112455e-38
-0.15361048 -0.056593336 0.65300006 1.1387962e-38
-0.15236668 -0.056593336 0.65300006 1.1755304e-38
-0.15112287 -0.056593336 0.65300006 1.1938975e-38
-0.14987907 -0.056593336 0.65300006 1.2214481e-38
-0.14840762 -0.056506667 0.65200001 1.2398154e-38
-0.14716572 -0.056506667 0.65200001 1.2673664e-38
-0.14592381 -0.056506667 0.65200001 1.304101e-38
-0.1446819 -0.056506667 0.65200001 1.3408355e-38
-0.14343999 -0.056506667 0.65200001 1.3500195e-38
-0.14219809 -0.056506667 0.65200001 1.3683859e-38
-0.14095619 -0.056506667 0.65200001 1.3592015e-38
-0.13971429 -0.056506667 0.65200001 1.3500178e-38
-0.13847238 -0.056506667 0.65200001 1.3316507e-38
-0.13723047 -0.056506667 0.65200001 1.3224672e-38
-0.13598858 -0.056506667 0.65200001 1.3408344e-38
-0.13495335 -0.056593336 0.65300006 1.3683853e-38
-0.13370954 -0.056593336 0.65300006 1.3592019e-38
-0.13287142 -0.05676667 0.65500003 1.3500182e-38
-0.1316238 -0.05676667 0.65500003 1.3408345e-38
-0.13057524 -0.056853335 0.65600002 1.3408703e-38
-0.12952286 -0.056939997 0.65700001 1.3133196e-38
-0.12827143 -0.056939997 0.65700001 1.2949168e-38
-0.12721334 -0.057026673 0.65800005 1.2581827e-38
-0.12634286 -0.0572 0.66000003 1.2214483e-38
-0.12508573 -0.0572 0.66000003 1.1847139e-38
-0.12401619 -0.057286669 0.66100001 1.1479807e-38
-0.12294286 -0.057373337 0.66200006 1.0837687e-38
-0.12168191 -0.057373337 0.66200006 1.0290283e-38
-0.12042096 -0.057373337 0.66200006 9.5620782e-39
-0.15931429 -0.05560381 0.65600002 9.5512531e-39
-0.15806477 -0.05560381 0.65600002 1.01941e-38
-0.1565762 -0.055519048 0.65500003 1.0653278e-38
-0.1548543 -0.055349529 0.65300006 1.1112455e-38
-0.15361048 -0.055349529 0.65300006 1.1387962e-38
-0.15236668 -0.055349529 0.65300006 1.1755304e-38
-0.15089144 -0.05526476 0.65200001 1.1938975e-38
-0.14964953 -0.05526476 0.65200001 1.2214481e-38
-0.14840762 -0.05526476 0.65200001 1.2398154e-38
-0.14716572 -0.05526476 0.65200001 1.2581833e-38
-0.14592381 -0.05526476 0.65200001 1.3316525e-38
-0.1446819 -0.05526476 0.65200001 1.4143052e-38
-0.14343999 -0.05526476 0.65200001 1.4052299e-38
-0.14219809 -0.05526476 0.65200001 1.405372e-38
-0.14095619 -0.05526476 0.65200001 1.395936e-38
-0.13971429 -0.05526476 0.65200001 1.3775686e-38
-0.13847238 -0.05526476 0.65200001 1.4143027e-38
-0.13723047 -0.05526476 0.65200001 1.4510727e-38
-0.13598858 -0.05526476 0.65200001 1.4143028e-38
-0.13474667 -0.05526476 0.65200001 1.3867524e-38
-0.13370954 -0.055349529 0.65300006 1.3683857e-38
-0.13246572 -0.055349529 0.65300006 1.3500901e-38
-0.1316238 -0.055519048 0.65500003 1.35009e-38
-0.13057524 -0.05560381 0.65600002 1.3500898e-38
-0.12952286 -0.055688571 0.65700001 1.3225032e-38
-0.12827143 -0.055688571 0.65700001 1.2949168e-38
-0.12721334 -0.055773336 0.65800005 1.2581827e-38
-0.12596001 -0.055773336 0.65800005 1.2306319e-38
-0.12508573 -0.05594286 0.66000003 1.1938976e-38
-0.12401619 -0.056027621 0.66100001 1.1571638e-38
-0.12294286 -0.056112386 0.66200006 1.102099e-38
-0.12168191 -0.056112386 0.66200006 1.0562552e-38
-0.12042096 -0.056112386 0.66200006 9.8332715e-39
-0.15931429 -0.054354288 0.65600002 9.7349227e-39
-0.15806477 -0.054354288 0.65600002 1.0377771e-38
-0.15609811 -0.054105718 0.65300006 1.0745113e-38
-0.1548543 -0.054105718 0.65300006 1.1112455e-38
-0.15361048 -0.054105718 0.65300006 1.1387962e-38
-0.15236668 -0.054105718 0.65300006 1.1755304e-38
-0.15089144 -0.054022856 0.65200001 1.1938975e-38
-0.14964953 -0.054022856 0.65200001 1.2214484e-38
-0.14840762 -0.054022856 0.65200001 1.2398159e-38
-0.14716572 -0.054022856 0.65200001 1.2581832e-38
-0.14592381 -0.054022856 0.65200001 1.3691034e-38
-0.1446819 -0.054022856 0.65200001 1.4891722e-38
-0.14322001 -0.053940002 0.65100002 1.4715238e-38
-0.14198001 -0.053940002 0.65100002 1.4521506e-38
-0.14074001 -0.053940002 0.65100002 1.4326699e-38
-0.13950001 -0.053940002 0.65100002 1.414591e-38
-0.13826001 -0.053940002 0.65100002 1.4984281e-38
-0.13723047 -0.054022856 0.65200001 1.5809711e-38
-0.13598858 -0.054022856 0.65200001 1.4982462e-38
-0.13474667 -0.054022856 0.65200001 1.4149491e-38
-0.13350476 -0.054022856 0.65200001 1.3867531e-38
-0.13246572 -0.054105718 0.65300006 1.3592021e-38
-0.13122191 -0.054105718 0.65300006 1.3592374e-38
-0.13037619 -0.054271434 0.65500003 1.3592374e-38
-0.12932572 -0.054354288 0.65600002 1.3225032e-38
-0.1280762 -0.054354288 0.65600002 1.2949166e-38
-0.12702 -0.054437142 0.65700001 1.267366e-38
-0.12596001 -0.054520003 0.65800005 1.2398154e-38
-0.12508573 -0.054685716 0.66000003 1.2030812e-38
-0.12382858 -0.054685716 0.66000003 1.1663471e-38
-0.12275714 -0.05476857 0.66100001 1.1204296e-38
-0.12168191 -0.054851435 0.66200006 1.0837691e-38
-0.12042096 -0.054851435 0.66200006 1.0196297e-38
-0.15931429 -0.053104762 0.65600002 9.7349227e-39
-0.15806477 -0.053104762 0.65600002 1.0377771e-38
-0.1565762 -0.053023811 0.65500003 1.0745113e-38
-0.1548543 -0.05286191 0.65300006 1.1112455e-38
-0.15361048 -0.05286191 0.65300006 1.1387962e-38
-0.15213333 -0.052780952 0.65200001 1.1755304e-38
-0.15089144 -0.052780952 0.65200001 1.203081e-38
-0.14964953 -0.052780952 0.65200001 1.2306322e-38
-0.14840762 -0.052780952 0.65200001 1.249e-38
-0.14716572 -0.052780952 0.65200001 1.2673666e-38
-0.14569999 -0.052700002 0.65100002 1.4157737e-38
-0.14445999 -0.052700002 0.65100002 1.5637524e-38
-0.14322001 -0.052700002 0.65100002 1.5175135e-38
-0.14176191 -0.052619051 0.65000004 1.4805622e-38
-0.14052381 -0.052619051 0.65000004 1.4695474e-38
-0.13928573 -0.052619051 0.65000004 1.460797e-38
-0.13804764 -0.052619051 0.65000004 1.6092792e-38
-0.13702001 -0.052700002 0.65100002 1.7577559e-38
-0.13577999 -0.052700002 0.65100002 1.6277128e-38
-0.13474667 -0.052780952 0.65200001 1.4987491e-38
-0.13350476 -0.052780952 0.65200001 1.5163277e-38
-0.13246572 -0.05286191 0.65300006 1.5430883e-38
-0.13122191 -0.05286191 0.65300006 1.460328e-38
-0.13037619 -0.053023811 0.65500003 1.3775686e-38
-0.12932572 -0.053104762 0.65600002 1.3500181e-38
-0.1280762 -0.053104762 0.65600002 1.3224673e-38
-0.12702 -0.053185716 0.65700001 1.285733e-38
-0.12576857 -0.053185716 0.65700001 1.2489988e-38
-0.12470668 -0.053266671 0.65800005 1.2030812e-38
-0.12382858 -0.053428572 0.66000003 1.166347e-38
-0.12294286 -0.05359048 0.66200006 1.1296128e-38
-0.12168191 -0.05359048 0.66200006 1.0929161e-38
-0.12042096 -0.05359048 0.66200006 1.0195211e-38
-0.16056381 -0.05185524 0.65600002 9.2757523e-39
-0.15931429 -0.05185524 0.65600002 9.8267582e-39
-0.15806477 -0.05185524 0.65600002 1.0377771e-38
-0.1565762 -0.051776193 0.65500003 1.0745113e-38
-0.1548543 -0.051618099 0.65300006 1.1112455e-38
-0.15337524 -0.051539049 0.65200001 1.1387962e-38
-0.15213333 -0.051539049 0.65200001 1.1755304e-38
-0.15089144 -0.051539049 0.65200001 1.2030812e-38
-0.14964953 -0.051539049 0.65200001 1.2398156e-38
-0.14818001 -0.051460002 0.65100002 1.258183e-38
-0.14694001 -0.051460002 0.65100002 1.2765515e-38
-0.14569999 -0.051460002 0.65100002 1.4533004e-38
-0.1442381 -0.051380955 0.65000004 1.6369719e-38
-0.14300001 -0.051380955 0.65000004 1.5727235e-38
-0.14176191 -0.051380955 0.65000004 1.5173689e-38
-0.14052381 -0.051380955 0.65000004 1.5156448e-38
-0.13928573 -0.051380955 0.65000004 1.5168343e-38
-0.13702001 -0.051460002 0.65100002 1.9412172e-38
-0.13577999 -0.051460002 0.65100002 1.7571846e-38
-0.13474667 -0.051539049 0.65200001 1.5825533e-38
-0.13350476 -0.051539049 0.65200001 1.655914e-38
-0.13246572 -0.051618099 0.65300006 1.7382072e-38
-0.13122191 -0.051618099 0.65300006 1.563361e-38
-0.13037619 -0.051776193 0.65500003 1.3967632e-38
-0.12912858 -0.051776193 0.65500003 1.368385e-38
-0.12788096 -0.051776193 0.65500003 1.3500178e-38
-0.12682666 -0.05185524 0.65600002 1.3041001e-38
-0.12576857 -0.051934287 0.65700001 1.2581823e-38
-0.12508573 -0.052171431 0.66000003 1.2122646e-38
-0.12401619 -0.052250478 0.66100001 1.1755304e-38
-0.12294286 -0.052329529 0.66200006 1.1387962e-38
-0.12168191 -0.052329529 0.66200006 1.1020631e-38
-0.12042096 -0.052329529 0.66200006 1.0286315e-38
-0.11916001 -0.052329529 0.66200006 9.6449271e-39
-0.16056381 -0.050605714 0.65600002 9.2757494e-39
-0.15907143 -0.050528575 0.65500003 9.8267582e-39
-0.15782382 -0.050528575 0.65500003 1.0377771e-38
-0.15609811 -0.050374292 0.65300006 1.0745113e-38
-0.15461715 -0.050297141 0.65200001 1.1112455e-38
-0.15337524 -0.050297141 0.65200001 1.1387962e-38
-0.15213333 -0.050297141 0.65200001 1.166347e-38
-0.15089144 -0.050297141 0.65200001 1.1938977e-38
-0.14942001 -0.050220001 0.65100002 1.2306319e-38
-0.14818001 -0.050220001 0.65100002 1.2673661e-38
-0.14694001 -0.050220001 0.65100002 1.2949559e-38
-0.14547621 -0.050142858 0.65000004 1.4441919e-38
-0.1442381 -0.050142858 0.65000004 1.6005628e-38
-0.14300001 -0.050142858 0.65000004 1.5634693e-38
-0.14176191 -0.050142858 0.65000004 1.5266607e-38
-0.14052381 -0.050142858 0.65000004 1.5359852e-38
-0.13928573 -0.050142858 0.65000004 1.5545042e-38
-0.13702001 -0.050220001 0.65100002 1.8675751e-38
-0.13577999 -0.050220001 0.65100002 1.7200609e-38
-0.13453999 -0.050220001 0.65100002 1.5819121e-38
-0.13350476 -0.050297141 0.65200001 1.6839705e-38
-0.13226286 -0.050297141 0.65200001 1.7854925e-38
-0.13122191 -0.050374292 0.65300006 1.6096068e-38
-0.12997811 -0.050374292 0.65300006 1.434325e-38
-0.12912858 -0.050528575 0.65500003 1.4059442e-38
-0.12788096 -0.050528575 0.65500003 1.3776043e-38
-0.12682666 -0.050605714 0.65600002 1.3224673e-38
-0.12576857 -0.050682854 0.65700001 1.2673659e-38
-0.12470668 -0.050760005 0.65800005 1.2214481e-38
-0.12382858 -0.050914288 0.66000003 1.1847139e-38
-0.12294286 -0.051068578 0.66200006 1.1479797e-38
-0.12168191 -0.051068578 0.66200006 1.1112459e-38
-0.12042096 -0.051068578 0.66200006 1.0378138e-38
-0.11916001 -0.051068578 0.66200006 9.6442013e-39
-0.16056381 -0.049356192 0.65600002 9.2757494e-39
-0.15907143 -0.049280953 0.65500003 9.8267582e-39
-0.15782382 -0.049280953 0.65500003 1.0377771e-38
-0.1565762 -0.049280953 0.65500003 1.0745113e-38
-0.15461715 -0.049055237 0.65200001 1.1112455e-38
-0.15337524 -0.049055237 0.65200001 1.1296126e-38
-0.15213333 -0.049055237 0.65200001 1.1571634e-38
-0.15066001 -0.048980001 0.65100002 1.1938977e-38
-0.14942001 -0.048980001 0.65100002 1.2306319e-38
-0.14818001 -0.048980001 0.65100002 1.2765856e-38
-0.14694001 -0.048980001 0.65100002 1.3229373e-38
-0.14547621 -0.048904765 0.65000004 1.4443001e-38
-0.1442381 -0.048904765 0.65000004 1.5638292e-38
-0.14300001 -0.048904765 0.65000004 1.5450669e-38
-0.14176191 -0.048904765 0.65000004 1.5357753e-38
-0.14052381 -0.048904765 0.65000004 1.5632897e-38
-0.13928573 -0.048904765 0.65000004 1.5916339e-38
-0.13804764 -0.048904765 0.65000004 1.693626e-38
-0.13680953 -0.048904765 0.65000004 1.7941051e-38
-0.13577999 -0.048980001 0.65100002 1.6921516e-38
-0.13453999 -0.048980001 0.65100002 1.591168e-38
-0.13330001 -0.048980001 0.65100002 1.7120245e-38
-0.13226286 -0.049055237 0.65200001 1.8314105e-38
-0.13102096 -0.049055237 0.65200001 1.6466632e-38
-0.12997811 -0.049130481 0.65300006 1.4714548e-38
-0.12873429 -0.049130481 0.65300006 1.4435419e-38
-0.12749048 -0.049130481 0.65300006 1.4151296e-38
-0.12663335 -0.049280953 0.65500003 1.3500191e-38
-0.12557714 -0.049356192 0.65600002 1.2857337e-38
-0.12470668 -0.049506668 0.65800005 1.2398154e-38
-0.12382858 -0.049657144 0.66000003 1.1938975e-38
-0.12275714 -0.049732383 0.66100001 1.1571633e-38
-0.1214981 -0.049732383 0.66100001 1.1204293e-38
-0.12042096 -0.049807623 0.66200006 1.0378494e-38
-0.11916001 -0.049807623 0.66200006 9.6441971e-39
-0.16031905 -0.048033334 0.65500003 9.2757494e-39
-0.15907143 -0.048033334 0.65500003 9.7349227e-39
-0.15782382 -0.048033334 0.65500003 1.01941e-38
-0.15609811 -0.047886673 0.65300006 1.0561442e-38
-0.15461715 -0.047813334 0.65200001 1.102062e-38
-0.15337524 -0.047813334 0.65200001 1.1204291e-38
-0.15190001 -0.047740001 0.65100002 1.1479799e-38
-0.15066001 -0.047740001 0.65100002 1.1755306e-38
-0.14942001 -0.047740001 0.65100002 1.2122648e-38
-0.14818001 -0.047740001 0.65100002 1.2768725e-38
-0.14671429 -0.047666669 0.65000004 1.3509187e-38
-0.14547621 -0.047666669 0.65000004 1.4628471e-38
-0.1442381 -0.047666669 0.65000004 1.5821968e-38
-0.14300001 -0.047666669 0.65000004 1.563363e-38
-0.14176191 -0.047666669 0.65000004 1.5540735e-38
-0.14052381 -0.047666669 0.65000004 1.6097865e-38
-0.13928573 -0.047666669 0.65000004 1.6654979e-38
-0.13804764 -0.047666669 0.65000004 1.6563505e-38
-0.13680953 -0.047666669 0.65000004 1.6472025e-38
-0.13577999 -0.047740001 0.65100002 1.6284048e-38
-0.13453999 -0.047740001 0.65100002 1.6096432e-38
-0.13350476 -0.047813334 0.65200001 1.6470592e-38
-0.13226286 -0.047813334 0.65200001 1.6844738e-38
-0.13122191 -0.047886673 0.65300006 1.5821265e-38
-0.12997811 -0.047886673 0.65300006 1.4718502e-38
-0.12873429 -0.047886673 0.65300006 1.4436161e-38
-0.12749048 -0.047886673 0.65300006 1.4067729e-38
-0.12663335 -0.048033334 0.65500003 1.3502354e-38
-0.12557714 -0.048106667 0.65600002 1.2857342e-38
-0.12451714 -0.048179999 0.65700001 1.2306319e-38
-0.12345334 -0.048253335 0.65800005 1.1847141e-38
-0.12257144 -0.048400003 0.66000003 1.1479799e-38
-0.1214981 -0.048473332 0.66100001 1.1204293e-38
-0.12023905 -0.048473332 0.66100001 1.0378493e-38
-0.11916001 -0.048546668 0.66200006 9.6441915e-39
-0.16056381 -0.046857145 0.65600002 9.2757466e-39
-0.15907143 -0.046785716 0.65500003 9.6430872e-39
-0.15782382 -0.046785716 0.65500003 1.0102265e-38
-0.15609811 -0.046642862 0.65300006 1.0469607e-38
-0.15461715 -0.04657143 0.65200001 1.0928784e-38
-0.15337524 -0.04657143 0.65200001 1.1112455e-38
-0.15190001 -0.046500001 0.65100002 1.1387966e-38
-0.15066001 -0.046500001 0.65100002 1.1663477e-38
-0.14942001 -0.046500001 0.65100002 1.1940062e-38
-0.14818001 -0.046500001 0.65100002 1.2863442e-38
-0.14671429 -0.046428576 0.65000004 1.3785055e-38
-0.14547621 -0.046428576 0.65000004 1.4906125e-38
-0.1442381 -0.046428576 0.65000004 1.6004909e-38
-0.14300001 -0.046428576 0.65000004 1.5908756e-38
-0.14176191 -0.046428576 0.65000004 1.5818035e-38
-0.14052381 -0.046428576 0.65000004 1.6663605e-38
-0.13928573 -0.046428576 0.65000004 1.7482932e-38
-0.13804764 -0.046428576 0.65000004 1.6274703e-38
-0.13702001 -0.046500001 0.65100002 1.5087663e-38
-0.13577999 -0.046500001 0.65100002 1.5645857e-38
-0.13453999 -0.046500001 0.65100002 1.6284397e-38
-0.13350476 -0.04657143 0.65200001 1.5821271e-38
-0.13226286 -0.04657143 0.65200001 1.5452483e-38
-0.13122191 -0.046642862 0.65300006 1.5084055e-38
-0.12997811 -0.046642862 0.65300006 1.4809247e-38
-0.12873429 -0.046642862 0.65300006 1.4437225e-38
-0.12749048 -0.046642862 0.65300006 1.4064132e-38
-0.12663335 -0.046785716 0.65500003 1.3504858e-38
-0.12557714 -0.046857145 0.65600002 1.2949173e-38
-0.12451714 -0.046928573 0.65700001 1.2306318e-38
-0.12345334 -0.047000002 0.65800005 1.1755305e-38
-0.12275714 -0.047214285 0.66100001 1.1480159e-38
-0.12168191 -0.047285721 0.66200006 1.1296488e-38
-0.12060287 -0.047357146 0.66300005 1.0470328e-38
-0.11934 -0.047357146 0.66300005 9.6438313e-39
-0.15907143 -0.045538098 0.65500003 9.4594162e-39
-0.15782382 -0.045538098 0.65500003 9.9185937e-39
-0.15609811 -0.045399051 0.65300006 1.0285936e-38
-0.15461715 -0.045329522 0.65200001 1.0653278e-38
-0.15337524 -0.045329522 0.65200001 1.0928786e-38
-0.15190001 -0.045260001 0.65100002 1.1296133e-38
-0.15066001 -0.045260001 0.65100002 1.1571647e-38
-0.14919049 -0.045190476 0.65000004 1.1849311e-38
-0.14818001 -0.045260001 0.65100002 1.2495394e-38
-0.14671429 -0.045190476 0.65000004 1.3142927e-38
-0.14547621 -0.045190476 0.65000004 1.3792972e-38
-0.1442381 -0.045190476 0.65000004 1.4442976e-38
-0.14300001 -0.045190476 0.65000004 1.4534433e-38
-0.14176191 -0.045190476 0.65000004 1.4625967e-38
-0.14052381 -0.045190476 0.65000004 1.5090943e-38
-0.13928573 -0.045190476 0.65000004 1.5648015e-38
-0.13804764 -0.045190476 0.65000004 1.5165481e-38
-0.13702001 -0.045260001 0.65100002 1.4803893e-38
-0.13577999 -0.045260001 0.65100002 1.5089099e-38
-0.13453999 -0.045260001 0.65100002 1.5370337e-38
-0.13350476 -0.045329522 0.65200001 1.5180561e-38
-0.13226286 -0.045329522 0.65200001 1.5082615e-38
-0.13102096 -0.045329522 0.65200001 1.4807815e-38
-0.12997811 -0.045399051 0.65300006 1.4533009e-38
-0.12873429 -0.045399051 0.65300006 1.4067359e-38
-0.12749048 -0.045399051 0.65300006 1.3601718e-38
-0.12663335 -0.045538098 0.65500003 1.3043164e-38
-0.12557714 -0.045607619 0.65600002 1.2490352e-38
-0.12451714 -0.04567714 0.65700001 1.2122646e-38
-0.12345334 -0.045746669 0.65800005 1.1847141e-38
-0.12275714 -0.045955241 0.66100001 9.7349269e-39
-0.15907143 -0.044290476 0.65500003 9.2757452e-39
-0.15734191 -0.04415524 0.65300006 9.7349227e-39
-0.15585905 -0.044087619 0.65200001 1.0010429e-38
-0.15461715 -0.044087619 0.65200001 1.0377771e-38
-0.15337524 -0.044087619 0.65200001 1.0745113e-38
-0.15190001 -0.044020001 0.65100002 1.1204295e-38
-0.15066001 -0.044020001 0.65100002 1.1480164e-38
-0.14919049 -0.043952383 0.65000004 1.175639e-38
-0.14818001 -0.044020001 0.65100002 1.212768e-38
-0.14671429 -0.043952383 0.65000004 1.2589024e-38
-0.14547621 -0.043952383 0.65000004 1.2683386e-38
-0.1442381 -0.043952383 0.65000004 1.2865257e-38
-0.14300001 -0.043952383 0.65000004 1.3139321e-38
-0.14176191 -0.043952383 0.65000004 1.3513503e-38
-0.14074001 -0.044020001 0.65100002 1.3612538e-38
-0.13950001 -0.044020001 0.65100002 1.37883e-38
-0.13804764 -0.043952383 0.65000004 1.4148091e-38
-0.13702001 -0.044020001 0.65100002 1.4612655e-38
-0.13577999 -0.044020001 0.65100002 1.4532665e-38
-0.13474667 -0.044087619 0.65200001 1.4527289e-38
-0.13350476 -0.044087619 0.65200001 1.4614108e-38
-0.13226286 -0.044087619 0.65200001 1.4707722e-38
-0.13102096 -0.044087619 0.65200001 1.4434352e-38
-0.12977906 -0.044087619 0.65200001 1.4245289e-38
-0.12873429 -0.04415524 0.65300006 1.3688885e-38
-0.12749048 -0.04415524 0.65300006 1.3227198e-38
-0.12624668 -0.04415524 0.65300006 1.258184e-38
-0.12557714 -0.044358093 0.65600002 1.2030819e-38
-0.12451714 -0.044425715 0.65700001 1.2031528e-38
-0.12345334 -0.044493336 0.65800005 1.203117e-38
-0.15734191 -0.042911433 0.65300006 9.5512517e-39
-0.15585905 -0.042845711 0.65200001 9.9185937e-39
-0.15461715 -0.042845711 0.65200001 1.01941e-38
-0.15337524 -0.042845711 0.65200001 1.0561442e-38
-0.15190001 -0.042780001 0.65100002 1.083695e-38
-0.15066001 -0.042780001 0.65100002 1.1112458e-38
-0.14919049 -0.042714287 0.65000004 1.1387963e-38
-0.14818001 -0.042780001 0.65100002 1.1757099e-38
-0.14694001 -0.042780001 0.65100002 1.2034765e-38
-0.14547621 -0.042714287 0.65000004 1.2219519e-38
-0.1442381 -0.042714287 0.65000004 1.240463e-38
-0.14300001 -0.042714287 0.65000004 1.2495036e-38
-0.14176191 -0.042714287 0.65000004 1.2585429e-38
-0.14074001 -0.042780001 0.65100002 1.2583627e-38
-0.13950001 -0.042780001 0.65100002 1.2673673e-38
-0.13804764 -0.042714287 0.65000004 1.2950618e-38
-0.13702001 -0.042780001 0.65100002 1.3227557e-38
-0.13577999 -0.042780001 0.65100002 1.3320108e-38
-0.13474667 -0.042845711 0.65200001 1.3321203e-38
-0.13350476 -0.042845711 0.65200001 1.341521e-38
-0.13226286 -0.042845711 0.65200001 1.3417343e-38
-0.13102096 -0.042845711 0.65200001 1.3324412e-38
-0.12977906 -0.042845711 0.65200001 1.3231853e-38
-0.12853715 -0.042845711 0.65200001 1.2859844e-38
-0.12749048 -0.042911433 0.65300006 1.2581836e-38
-0.12624668 -0.042911433 0.65300006 1.2306339e-38
-0.12557714 -0.043108571 0.65600002 1.2030821e-38
-0.12470668 -0.043240003 0.65800005 9.5519706e-39
-0.15782382 -0.041795239 0.65500003 9.4594162e-39
-0.15609811 -0.041667622 0.65300006 9.7349227e-39
-0.15461715 -0.041603811 0.65200001 1.0102265e-38
-0.15337524 -0.041603811 0.65200001 1.0285936e-38
-0.15190001 -0.041540001 0.65100002 1.0561442e-38
-0.15066001 -0.041540001 0.65100002 1.083695e-38
-0.14942001 -0.041540001 0.65100002 1.1112457e-38
-0.14818001 -0.041540001 0.65100002 1.1296128e-38
-0.14694001 -0.041540001 0.65100002 1.157164e-38
-0.14547621 -0.041476194 0.65000004 1.1755676e-38
-0.1442381 -0.041476194 0.65000004 1.193899e-38
-0.14300001 -0.041476194 0.65000004 1.175532e-38
-0.14198001 -0.041540001 0.65100002 1.1663481e-38
-0.14074001 -0.041540001 0.65100002 1.1663477e-38
-0.13950001 -0.041540001 0.65100002 1.1663478e-38
-0.13804764 -0.041476194 0.65000004 1.1755316e-38
-0.13702001 -0.041540001 0.65100002 1.1938989e-38
-0.13598858 -0.041603811 0.65200001 1.2030826e-38
-0.13474667 -0.041603811 0.65200001 1.2215583e-38
-0.13350476 -0.041603811 0.65200001 1.2217027e-38
-0.13226286 -0.041603811 0.65200001 1.2215583e-38
-0.13102096 -0.041603811 0.65200001 1.2214497e-38
-0.12977906 -0.041603811 0.65200001 1.221449e-38
-0.12853715 -0.041603811 0.65200001 1.2122648e-38
-0.12749048 -0.041667622 0.65300006 1.2030817e-38
-0.12624668 -0.041667622 0.65300006 1.203118e-38
-0.12557714 -0.041859046 0.65600002 1.2030817e-38
-0.15609811 -0.040423814 0.65300006 9.4594162e-39
-0.15461715 -0.040361904 0.65200001 9.8267582e-39
-0.15337524 -0.040361904 0.65200001 1.0010429e-38
-0.15213333 -0.040361904 0.65200001 1.01941e-38
-0.15089144 -0.040361904 0.65200001 1.0469607e-38
-0.14942001 -0.0403 0.65100002 1.0745113e-38
-0.14818001 -0.0403 0.65100002 1.0928786e-38
-0.14694001 -0.0403 0.65100002 1.1112462e-38
-0.14569999 -0.0403 0.65100002 1.129614e-38
-0.14445999 -0.0403 0.65100002 1.1571644e-38
-0.14322001 -0.0403 0.65100002 1.1479806e-38
-0.14198001 -0.0403 0.65100002 1.1479806e-38
-0.14074001 -0.0403 0.65100002 1.1571641e-38
-0.13950001 -0.0403 0.65100002 1.157164e-38
-0.13826001 -0.0403 0.65100002 1.1755311e-38
-0.13702001 -0.0403 0.65100002 1.1938986e-38
-0.13577999 -0.0403 0.65100002 1.2031186e-38
-0.13474667 -0.040361904 0.65200001 1.2215215e-38
-0.13350476 -0.040361904 0.65200001 1.2123023e-38
-0.13226286 -0.040361904 0.65200001 1.2122664e-38
-0.13102096 -0.040361904 0.65200001 1.2030828e-38
-0.12997811 -0.040423814 0.65300006 1.1938986e-38
-0.12873429 -0.040423814 0.65300006 1.2030814e-38
-0.12749048 -0.040423814 0.65300006 1.2123007e-38
-0.12624668 -0.040423814 0.65300006 9.3675821e-39
-0.15609811 -0.039180003 0.65300006 9.2757452e-39
-0.1548543 -0.039180003 0.65300006 9.5512517e-39
-0.15337524 -0.03912 0.65200001 9.7349227e-39
-0.15213333 -0.03912 0.65200001 9.9185937e-39
-0.15089144 -0.03912 0.65200001 1.0102265e-38
-0.14964953 -0.03912 0.65200001 1.0377771e-38
-0.14840762 -0.03912 0.65200001 1.0469608e-38
-0.14716572 -0.03912 0.65200001 1.0653282e-38
-0.14569999 -0.03906 0.65100002 1.0928791e-38
-0.14445999 -0.03906 0.65100002 1.1204296e-38
-0.14322001 -0.03906 0.65100002 1.129613e-38
-0.14198001 -0.03906 0.65100002 1.1387966e-38
-0.14074001 -0.03906 0.65100002 1.1479801e-38
-0.13950001 -0.03906 0.65100002 1.1571637e-38
-0.13826001 -0.03906 0.65100002 1.1755308e-38
-0.13702001 -0.03906 0.65100002 1.1938982e-38
-0.13577999 -0.03906 0.65100002 1.2031537e-38
-0.13474667 -0.03912 0.65200001 1.221485e-38
-0.13350476 -0.03912 0.65200001 1.2123014e-38
-0.13226286 -0.03912 0.65200001 1.2122655e-38
-0.13102096 -0.03912 0.65200001 1.1938984e-38
-0.12997811 -0.039180003 0.65300006 1.1755309e-38
-0.12873429 -0.039180003 0.65300006 1.203117e-38
-0.12749048 -0.039180003 0.65300006 1.2306678e-38
-0.15361048 -0.037936196 0.65300006 9.3675807e-39
-0.15213333 -0.037878092 0.65200001 9.6430872e-39
-0.15089144 -0.037878092 0.65200001 9.8267582e-39
-0.14964953 -0.037878092 0.65200001 1.0102265e-38
-0.14840762 -0.037878092 0.65200001 1.0194102e-38
-0.14716572 -0.037878092 0.65200001 1.0377771e-38
-0.14592381 -0.037878092 0.65200001 1.0561442e-38
-0.14445999 -0.03782 0.65100002 1.0836949e-38
-0.14322001 -0.03782 0.65100002 1.1020621e-38
-0.14198001 -0.03782 0.65100002 1.1204292e-38
-0.14074001 -0.03782 0.65100002 1.1296128e-38
-0.13950001 -0.03782 0.65100002 1.1387963e-38
-0.13826001 -0.03782 0.65100002 1.1479799e-38
-0.13702001 -0.03782 0.65100002 1.166347e-38
-0.13577999 -0.03782 0.65100002 1.1755306e-38
-0.13474667 -0.037878092 0.65200001 1.1939336e-38
-0.13350476 -0.037878092 0.65200001 1.1847142e-38
-0.13226286 -0.037878092 0.65200001 1.1847141e-38
-0.13122191 -0.037936196 0.65300006 1.1847141e-38
-0.12997811 -0.037936196 0.65300006 1.1938975e-38
-0.12873429 -0.037936196 0.65300006 1.0194459e-38
-0.15213333 -0.036636192 0.65200001 9.4594162e-39
-0.15089144 -0.036636192 0.65200001 9.6430872e-39
-0.14964953 -0.036636192 0.65200001 9.8267582e-39
-0.14840762 -0.036636192 0.65200001 9.9185951e-39
-0.14716572 -0.036636192 0.65200001 1.0102265e-38
-0.14592381 -0.036636192 0.65200001 1.0285936e-38
-0.1446819 -0.036636192 0.65200001 1.0469607e-38
-0.14322001 -0.03658 0.65100002 1.0745113e-38
-0.14198001 -0.03658 0.65100002 1.102062e-38
-0.14074001 -0.03658 0.65100002 1.1112455e-38
-0.13971429 -0.036636192 0.65200001 1.1204292e-38
-0.13826001 -0.03658 0.65100002 1.1296129e-38
-0.13702001 -0.03658 0.65100002 1.1387963e-38
-0.13577999 -0.03658 0.65100002 1.1479799e-38
-0.13474667 -0.036636192 0.65200001 1.166347e-38
-0.13350476 -0.036636192 0.65200001 1.1571634e-38
-0.13226286 -0.036636192 0.65200001 1.1571634e-38
-0.13122191 -0.036692385 0.65300006 1.1847139e-38
-0.12997811 -0.036692385 0.65300006 1.2123004e-38
-0.14964953 -0.035394285 0.65200001 9.4594162e-39
-0.14840762 -0.035394285 0.65200001 9.6430886e-39
-0.14716572 -0.035394285 0.65200001 9.8267582e-39
-0.14592381 -0.035394285 0.65200001 9.9185937e-39
-0.1446819 -0.035394285 0.65200001 1.0102265e-38
-0.14322001 -0.03534 0.65100002 1.0285936e-38
-0.14219809 -0.035394285 0.65200001 1.0561442e-38
-0.14074001 -0.03534 0.65100002 1.0653278e-38
-0.13971429 -0.035394285 0.65200001 1.083695e-38
-0.13826001 -0.03534 0.65100002 1.1020624e-38
-0.13702001 -0.03534 0.65100002 1.1112458e-38
-0.13598858 -0.035394285 0.65200001 1.1204292e-38
-0.13474667 -0.035394285 0.65200001 1.1296128e-38
-0.13350476 -0.035394285 0.65200001 1.1296128e-38
-0.13246572 -0.035448574 0.65300006 1.1296126e-38
-0.13122191 -0.035448574 0.65300006 1.0745113e-38
-0.13037619 -0.035557143 0.65500003 1.0195176e-38
-0.14863525 -0.034204766 0.65300006 9.3675807e-39
-0.14739144 -0.034204766 0.65300006 9.5512517e-39
-0.14592381 -0.034152381 0.65200001 9.6430872e-39
-0.1446819 -0.034152381 0.65200001 9.8267582e-39
-0.14343999 -0.034152381 0.65200001 9.9185937e-39
-0.14219809 -0.034152381 0.65200001 1.0102265e-38
-0.14095619 -0.034152381 0.65200001 1.0285936e-38
-0.13971429 -0.034152381 0.65200001 1.0561444e-38
-0.13847238 -0.034152381 0.65200001 1.0745116e-38
-0.13723047 -0.034152381 0.65200001 1.0928786e-38
-0.13619716 -0.034204766 0.65300006 1.0928784e-38
-0.13495335 -0.034204766 0.65300006 1.0928784e-38
-0.13370954 -0.034204766 0.65300006 1.1020621e-38
-0.13287142 -0.034309525 0.65500003 1.1112455e-38
-0.13182476 -0.034361906 0.65600002 9.643446e-39
-0.14490382 -0.032960951 0.65300006 9.3675821e-39
-0.14366001 -0.032960951 0.65300006 9.4594176e-39
-0.14219809 -0.032910477 0.65200001 9.6430872e-39
-0.14095619 -0.032910477 0.65200001 9.9185937e-39
-0.13971429 -0.032910477 0.65200001 1.0102265e-38
-0.13847238 -0.032910477 0.65200001 1.0285937e-38
-0.13744096 -0.032960951 0.65300006 1.0469607e-38
-0.13619716 -0.032960951 0.65300006 1.0469607e-38
-0.13536668 -0.033061903 0.65500003 1.0469607e-38
-0.13411906 -0.033061903 0.65500003 1.0653279e-38
-0.13307428 -0.033112381 0.65600002 1.0837309e-38
-0.14241621 -0.031717144 0.65300006 9.2757452e-39
-0.14117239 -0.031717144 0.65300006 9.4594162e-39
-0.13992859 -0.031717144 0.65300006 9.7349227e-39
-0.13868478 -0.031717144 0.65300006 9.9185937e-39
-0.13744096 -0.031717144 0.65300006 1.0102265e-38
-0.13619716 -0.031717144 0.65300006 1.0102266e-38
-0.13536668 -0.031814288 0.65500003 1.0102265e-38
-0.13411906 -0.031814288 0.65500003 1.0377771e-38
-0.13307428 -0.031862859 0.65600002 1.0653638e-38
-0.13992859 -0.030473337 0.65300006 9.2757452e-39
-0.13868478 -0.030473337 0.65300006 9.3675807e-39
-0.13786191 -0.030566668 0.65500003 9.5512531e-39
-0.13661429 -0.030566668 0.65500003 9.5512545e-39
-0.13557334 -0.030613335 0.65600002 9.5512531e-39
0.028602859 0.078505717 0.63900006 9.671102e-39
0.031037146 0.078505717 0.63900006 1.0589838e-38
0.016585715 0.080471434 0.64500004 9.5825427e-39
0.017814288 0.080471434 0.64500004 9.4921744e-39
0.019013334 0.080346674 0.64400005 9.310241e-39
0.019013334 0.081573337 0.64400005 1.1972041e-38
0.033471432 0.080940008 0.63900006 1.1509652e-38
0.034688573 0.080940008 0.63900006 9.3966913e-39
0.019013334 0.082800008 0.64400005 1.0776752e-38
0.019013334 0.084026672 0.64400005 9.6643085e-39
0.035905719 0.083374292 0.63900006 9.8555269e-39
0.037064761 0.08324381 0.63800001 9.4989441e-39
0.017814288 0.085385717 0.64500004 1.0233648e-38
0.038279999 0.084459044 0.63800001 9.313492e-39
0.016559999 0.086480007 0.64400005 1.2346935e-38
0.038279999 0.085674286 0.63800001 9.4013717e-39
0.04077429 0.085808575 0.63900006 1.0502696e-38
0.016559999 0.087706678 0.64400005 9.3073838e-39
0.043005716 0.087828577 0.63600004 1.151327e-38
0.044217143 0.087828577 0.63600004 9.8588059e-39
0.045428574 0.089040004 0.63600004 9.3092069e-39
0.045428574 0.090251438 0.63600004 1.0408342e-38
0.046640005 0.090251438 0.63600004 9.4053373e-39
0.052516192 0.11234476 0.69800001 1.0495847e-38
0.054077145 0.1154981 0.70100003 1.0043093e-38
0.049785715 0.11749429 0.69700003 1.1797055e-38
0.051113334 0.11749429 0.69700003 1.0967652e-38
0.17951429 0.16774286 0.61800003 9.2764655e-39
0.18039905 0.16747144 0.61700004 9.5519734e-39
0.1815743 0.16747144 0.61700004 9.6438103e-39
0.18274952 0.16747144 0.61700004 9.827124e-39
0.17626762 0.16919333 0.61900002 9.2768242e-39
0.17716001 0.16892001 0.61800003 9.368301e-39
0.17804858 0.16864668 0.61700004 9.551972e-39
0.17922382 0.16864668 0.61700004 9.8274799e-39
0.18010668 0.16837335 0.61600006 1.0102985e-38
0.18128002 0.16837335 0.61600006 1.0194462e-38
0.18215714 0.1681 0.61500001 1.0378131e-38
0.18332858 0.1681 0.61500001 1.0469607e-38
0.18450001 0.1681 0.61500001 1.0469609e-38
0.18684286 0.1681 0.61500001 1.0469619e-38
0.1880143 0.1681 0.61500001 1.0378148e-38
0.18918572 0.1681 0.61500001 1.0286692e-38
0.19066668 0.16837335 0.61600006 1.0104837e-38
0.19184002 0.16837335 0.61600006 9.9233217e-39
0.19301334 0.16837335 0.61600006 9.7504155e-39
0.17569812 0.16982192 0.61700004 9.9196713e-39
0.17687334 0.16982192 0.61700004 1.0010789e-38
0.17804858 0.16982192 0.61700004 1.0102625e-38
0.17922382 0.16982192 0.61700004 1.0378131e-38
0.18010668 0.16954668 0.61600006 1.0653638e-38
0.18098572 0.16927142 0.61500001 1.0837309e-38
0.18186095 0.16899619 0.61400002 1.1020978e-38
0.18303049 0.16899619 0.61400002 1.1112455e-38
0.1842 0.16899619 0.61400002 1.1204292e-38
0.18536952 0.16899619 0.61400002 1.1112458e-38
0.18653905 0.16899619 0.61400002 1.1020625e-38
0.18770857 0.16899619 0.61400002 1.0928793e-38
0.18918572 0.16927142 0.61500001 1.0928804e-38
0.19035713 0.16927142 0.61500001 1.0745504e-38
0.19152856 0.16927142 0.61500001 1.0561837e-38
0.1927 0.16927142 0.61500001 1.0378531e-38
0.19387142 0.16927142 0.61500001 1.020062e-38
0.19536002 0.16954668 0.61600006 9.9312334e-39
0.19653335 0.16954668 0.61600006 9.6657855e-39
0.17541336 0.17072001 0.61600006 1.0287371e-38
0.17658667 0.17072001 0.61600006 1.037813e-38
0.17747143 0.17044285 0.61500001 1.0469965e-38
0.17835239 0.17016572 0.61400002 1.0653636e-38
0.1795219 0.17016572 0.61400002 1.0929502e-38
0.18069144 0.17016572 0.61400002 1.102098e-38
0.18156476 0.16988859 0.61300004 1.1204649e-38
0.1827324 0.16988859 0.61300004 1.1296126e-38
0.18390001 0.16988859 0.61300004 1.1479797e-38
0.18506762 0.16988859 0.61300004 1.1387962e-38
0.18653905 0.17016572 0.61400002 1.1387962e-38
0.18740286 0.16988859 0.61300004 1.1387962e-38
0.18918572 0.17044285 0.61500001 1.1296128e-38
0.19035713 0.17044285 0.61500001 1.1204293e-38
0.19152856 0.17044285 0.61500001 1.1112465e-38
0.1927 0.17044285 0.61500001 1.0929161e-38
0.19387142 0.17044285 0.61500001 1.0746592e-38
0.19536002 0.17072001 0.61600006 1.0475775e-38
0.19653335 0.17072001 0.61600006 1.0208534e-38
0.19770668 0.17072001 0.61600006 9.7572622e-39
0.17541336 0.17189336 0.61600006 1.0653995e-38
0.1763 0.17161429 0.61500001 1.0745472e-38
0.17689429 0.1710562 0.61300004 1.0837307e-38
0.17806192 0.1710562 0.61300004 1.1020621e-38
0.17922953 0.1710562 0.61300004 1.120501e-38
0.18039715 0.1710562 0.61300004 1.1296845e-38
0.18126859 0.17077716 0.61200005 1.1480156e-38
0.18213618 0.17049809 0.611 1.1571633e-38
0.18360001 0.17077716 0.61200005 1.1755304e-38
0.1844638 0.17049809 0.611 1.1755662e-38
0.18593144 0.17077716 0.61200005 1.1847139e-38
0.18709715 0.17077716 0.61200005 1.1755304e-38
0.18826286 0.17077716 0.61200005 1.1755304e-38
0.18973809 0.1710562 0.61300004 1.166347e-38
0.19090572 0.1710562 0.61300004 1.1663472e-38
0.19238667 0.17133525 0.61400002 1.1479806e-38
0.19355619 0.17133525 0.61400002 1.129615e-38
0.19504285 0.17161429 0.61500001 1.1020659e-38
0.19653335 0.17189336 0.61600006 1.0749834e-38
0.19770668 0.17189336 0.61600006 1.029534e-38
0.17424001 0.17306668 0.61600006 9.6438047e-39
0.17512858 0.17278571 0.61500001 1.0653995e-38
0.17572668 0.17222382 0.61300004 1.0837307e-38
0.17660573 0.17194286 0.61200005 1.102098e-38
0.17777145 0.17194286 0.61200005 1.1112458e-38
0.17893715 0.17194286 0.61200005 1.1297205e-38
0.17980857 0.1716619 0.611 1.1480159e-38
0.18097238 0.1716619 0.611 1.1571993e-38
0.18213618 0.1716619 0.611 1.1663827e-38
0.18270001 0.17110001 0.60900003 1.1847857e-38
0.18386 0.17110001 0.60900003 1.1939333e-38
0.18502001 0.17110001 0.60900003 1.2031169e-38
0.18618001 0.17110001 0.60900003 1.203081e-38
0.18734001 0.17110001 0.60900003 1.203081e-38
0.18911904 0.1716619 0.611 1.1938975e-38
0.19059429 0.17194286 0.61200005 1.1938975e-38
0.19176002 0.17194286 0.61200005 1.1847139e-38
0.19324097 0.17222382 0.61300004 1.1755308e-38
0.19472572 0.17250477 0.61400002 1.1479806e-38
0.19621429 0.17278571 0.61500001 1.1205399e-38
0.19706477 0.17250477 0.61400002 1.0842027e-38
0.19823429 0.17250477 0.61400002 1.0480084e-38
0.17250477 0.17367429 0.61400002 1.0745472e-38
0.17339143 0.17339143 0.61300004 1.0745472e-38
0.17455906 0.17339143 0.61300004 1.0745472e-38
0.17544001 0.17310858 0.61200005 1.0929143e-38
0.17631714 0.17282571 0.611 1.1204649e-38
0.17748095 0.17282571 0.611 1.1296486e-38
0.17864476 0.17282571 0.611 1.1480157e-38
0.17980857 0.17282571 0.611 1.1571993e-38
0.18038 0.17226 0.60900003 1.1755662e-38
0.18154 0.17226 0.60900003 1.1847857e-38
0.18270001 0.17226 0.60900003 1.1939333e-38
0.18355811 0.17197716 0.60800004 1.2123004e-38
0.18471619 0.17197716 0.60800004 1.2306317e-38
0.1858743 0.17197716 0.60800004 1.2306317e-38
0.1870324 0.17197716 0.60800004 1.2398152e-38
0.18819048 0.17197716 0.60800004 1.2306317e-38
0.19028285 0.17282571 0.611 1.2214481e-38
0.19144666 0.17282571 0.611 1.2214481e-38
0.19292574 0.17310858 0.61200005 1.2214483e-38
0.19440858 0.17339143 0.61300004 1.1938979e-38
0.19589524 0.17367429 0.61400002 1.1755679e-38
0.19674382 0.17339143 0.61300004 1.138871e-38
0.19855714 0.17395714 0.61500001 1.1116454e-38
0.19972856 0.17395714 0.61500001 1.0660888e-38
0.17194286 0.17427431 0.61200005 1.0286294e-38
0.17310858 0.17427431 0.61200005 1.0561801e-38
0.17398952 0.17398952 0.611 1.0836949e-38
0.17515333 0.17398952 0.611 1.102062e-38
0.17574 0.17342 0.60900003 1.1204649e-38
0.17690001 0.17342 0.60900003 1.1387962e-38
0.17864476 0.17398952 0.611 1.1479797e-38
0.17892572 0.17313524 0.60800004 1.1571633e-38
0.18008383 0.17313524 0.60800004 1.1755304e-38
0.18124191 0.17313524 0.60800004 1.1847139e-38
0.18240002 0.17313524 0.60800004 1.1938975e-38
0.18325621 0.17285049 0.60700005 1.2122647e-38
0.18441239 0.17285049 0.60700005 1.2306317e-38
0.18556859 0.17285049 0.60700005 1.2398152e-38
0.18672478 0.17285049 0.60700005 1.2489988e-38
0.18788098 0.17285049 0.60700005 1.2489988e-38
0.18934858 0.17313524 0.60800004 1.2398152e-38
0.19050668 0.17313524 0.60800004 1.2398152e-38
0.19198 0.17342 0.60900003 1.2398152e-38
0.19409144 0.17427431 0.61200005 1.2214481e-38
0.19525716 0.17427431 0.61200005 1.2030813e-38
0.19642287 0.17427431 0.61200005 1.1755668e-38
0.19758859 0.17427431 0.61200005 1.1572382e-38
0.19907905 0.17455906 0.61300004 1.1116461e-38
0.20024668 0.17455906 0.61300004 1.0664131e-38
0.16994001 0.17458001 0.60900003 9.3675807e-39
0.1716619 0.17515333 0.611 9.8267582e-39
0.17282571 0.17515333 0.611 1.037813e-38
0.17398952 0.17515333 0.611 1.102062e-38
0.17458001 0.17458001 0.60900003 1.1112455e-38
0.17574 0.17458001 0.60900003 1.1296126e-38
0.17660955 0.17429334 0.60800004 1.1387962e-38
0.17776762 0.17429334 0.60800004 1.1571633e-38
0.17863144 0.17400669 0.60700005 1.1663468e-38
0.17978764 0.17400669 0.60700005 1.1755304e-38
0.18064572 0.17372 0.60600001 1.1847139e-38
0.18179999 0.17372 0.60600001 1.203081e-38
0.18295428 0.17372 0.60600001 1.2214481e-38
0.18410857 0.17372 0.60600001 1.2398152e-38
0.18757142 0.17372 0.60600001 1.2673659e-38
0.18903716 0.17400669 0.60700005 1.2673659e-38
0.19019336 0.17400669 0.60700005 1.2581823e-38
0.19166477 0.17429334 0.60800004 1.2581823e-38
0.19314002 0.17458001 0.60900003 1.2489988e-38
0.19493809 0.17515333 0.611 1.2398154e-38
0.1961019 0.17515333 0.611 1.2214484e-38
0.19726571 0.17515333 0.611 1.203083e-38
0.1987543 0.17544001 0.61200005 1.1572028e-38
0.20024668 0.17572668 0.61300004 1.1210458e-38
0.2014143 0.17572668 0.61300004 1.0576253e-38
0.16878001 0.17574 0.60900003 9.276104e-39
0.16966096 0.17545144 0.60800004 9.6430872e-39
0.17110001 0.17574 0.60900003 1.0010429e-38
0.17226 0.17574 0.60900003 1.0469607e-38
0.17342 0.17574 0.60900003 1.0928784e-38
0.17429334 0.17545144 0.60800004 1.102062e-38
0.17516288 0.17516288 0.60700005 1.1204291e-38
0.17631905 0.17516288 0.60700005 1.1387962e-38
0.17718287 0.17487428 0.60600001 1.1571633e-38
0.17833714 0.17487428 0.60600001 1.166347e-38
0.17919524 0.17458571 0.60500002 1.1847139e-38
0.18034762 0.17458571 0.60500002 1.1938975e-38
0.1815 0.17458571 0.60500002 1.203081e-38
0.18610953 0.17458571 0.60500002 1.285733e-38
0.18757142 0.17487428 0.60600001 1.285733e-38
0.18903716 0.17516288 0.60700005 1.285733e-38
0.19019336 0.17516288 0.60700005 1.2765494e-38
0.19134954 0.17516288 0.60700005 1.2765494e-38
0.19282287 0.17545144 0.60800004 1.2673659e-38
0.19430001 0.17574 0.60900003 1.2581823e-38
0.19546001 0.17574 0.60900003 1.2398152e-38
