# .PCD v0.7 - Point Cloud Data file format
VERSION 0.7
FIELDS x y z
SIZE 4 4 4
TYPE F F F
COUNT 1 1 1
WIDTH 424
HEIGHT 1
VIEWPOINT 0 0 0 1 0 0 0
POINTS 424
DATA ascii
-0.35991427 0.24301906 0.64600003
-0.35868382 0.24301906 0.64600003
-0.35745335 0.24301906 0.64600003
-0.35622287 0.24301906 0.64600003
-0.35499239 0.24301906 0.64600003
-0.35991427 0.24424952 0.64600003
-0.35868382 0.24424952 0.64600003
-0.35745335 0.24424952 0.64600003
-0.35622287 0.24424952 0.64600003
-0.33794668 0.24349335 0.64400005
-0.33672002 0.24349335 0.64400005
-0.33549336 0.24349335 0.64400005
-0.3065905 0.24198097 0.64000005
-0.35868382 0.24548 0.64600003
-0.35745335 0.24548 0.64600003
-0.34215716 0.24510001 0.64500004
-0.34040004 0.24472003 0.64400005
-0.33917335 0.24472003 0.64400005
-0.33794668 0.24472003 0.64400005
-0.33672002 0.24472003 0.64400005
-0.30611145 0.24282002 0.63900006
-0.34215716 0.24632859 0.64500004
-0.34040004 0.24594668 0.64400005
-0.33917335 0.24594668 0.64400005
-0.33794668 0.24594668 0.64400005
-0.33567429 0.24518287 0.64200002
-0.33445144 0.24518287 0.64200002
-0.30611145 0.24403715 0.63900006
-0.30225143 0.24289143 0.63600004
-0.34584287 0.24755716 0.64500004
-0.34408003 0.24717334 0.64400005
-0.34285337 0.24717334 0.64400005
-0.34040004 0.24717334 0.64400005
-0.33917335 0.24717334 0.64400005
0.30130285 0.23949714 0.62400001
0.30249143 0.23949714 0.62400001
0.30368 0.23949714 0.62400001
0.30486858 0.23949714 0.62400001
0.30605716 0.23949714 0.62400001
0.3072457 0.23949714 0.62400001
-0.25541145 0.24454284 0.634
-0.25460479 0.24492858 0.63500005
-0.25339526 0.24492858 0.63500005
0.22761144 0.24068572 0.62400001
0.2288 0.24068572 0.62400001
0.30249143 0.24068572 0.62400001
0.30368 0.24068572 0.62400001
0.30486858 0.24068572 0.62400001
0.30605716 0.24068572 0.62400001
0.3072457 0.24068572 0.62400001
0.30843431 0.24068572 0.62400001
0.31588858 0.24184287 0.62700003
0.22606 0.24148667 0.62300003
0.22724667 0.24148667 0.62300003
0.22843334 0.24148667 0.62300003
0.22962001 0.24148667 0.62300003
0.30486858 0.24187429 0.62400001
0.30605716 0.24187429 0.62400001
0.3072457 0.24187429 0.62400001
0.30843431 0.24187429 0.62400001
0.31300002 0.24264954 0.62600005
0.31419241 0.24264954 0.62600005
0.31538478 0.24264954 0.62600005
0.31657717 0.24264954 0.62600005
-0.092091434 0.24617904 0.63200003
-0.090887621 0.24617904 0.63200003
0.20740572 0.24306285 0.62400001
0.20859429 0.24306285 0.62400001
0.20978285 0.24306285 0.62400001
0.21097143 0.24306285 0.62400001
0.22606 0.24267334 0.62300003
0.22761144 0.24306285 0.62400001
0.30605716 0.24306285 0.62400001
0.3072457 0.24306285 0.62400001
0.30843431 0.24306285 0.62400001
0.31011903 0.24345239 0.625
0.31300002 0.24384193 0.62600005
0.31419241 0.24384193 0.62600005
0.31538478 0.24384193 0.62600005
0.31657717 0.24384193 0.62600005
-0.14505906 0.24738286 0.63200003
-0.14385524 0.24738286 0.63200003
-0.093295246 0.24738286 0.63200003
-0.080871426 0.24620858 0.62900001
0.30605716 0.24425144 0.62400001
0.3072457 0.24425144 0.62400001
0.30843431 0.24425144 0.62400001
0.31011903 0.24464285 0.625
0.31130952 0.24464285 0.625
0.31300002 0.24503429 0.62600005
0.31369048 0.24464285 0.625
0.31538478 0.24503429 0.62600005
0.31657717 0.24503429 0.62600005
-0.20524953 0.24858668 0.63200003
-0.14723335 0.24819335 0.63100004
-0.14603144 0.24819335 0.63100004
-0.14482954 0.24819335 0.63100004
-0.14362763 0.24819335 0.63100004
-0.14265144 0.24858668 0.63200003
-0.14144762 0.24858668 0.63200003
-0.14046571 0.24898002 0.63300002
-0.093295246 0.24858668 0.63200003
0.30605716 0.24544001 0.62400001
0.30675334 0.24504668 0.62300003
0.30794001 0.24504668 0.62300003
0.30962285 0.24544001 0.62400001
0.31130952 0.24583334 0.625
0.3125 0.24583334 0.625
0.31369048 0.24583334 0.625
0.31488094 0.24583334 0.625
0.31607142 0.24583334 0.625
-0.3894667 0.25453335 0.64400005
-0.38824004 0.25453335 0.64400005
-0.38761431 0.25492859 0.64500004
-0.38578668 0.25453335 0.64400005
-0.38456002 0.25453335 0.64400005
-0.20524953 0.24979047 0.63200003
-0.20404573 0.24979047 0.63200003
-0.20284191 0.24979047 0.63200003
-0.20195715 0.25018573 0.63300002
-0.14556856 0.24860476 0.62900001
-0.14437048 0.24860476 0.62900001
-0.14362763 0.24939525 0.63100004
-0.14242573 0.24939525 0.63100004
-0.14024381 0.24979047 0.63200003
-0.094499052 0.24979047 0.63200003
-0.093147628 0.24939525 0.63100004
-0.091654286 0.24860476 0.62900001
-0.090456195 0.24860476 0.62900001
-0.02687143 0.2478143 0.62700003
-0.025636191 0.24741906 0.62600005
0.081417143 0.24662857 0.62400001
0.19639334 0.24623334 0.62300003
0.30675334 0.24623334 0.62300003
0.30794001 0.24623334 0.62300003
0.30912668 0.24623334 0.62300003
0.31081143 0.24662857 0.62400001
0.3125 0.24702381 0.625
0.31369048 0.24702381 0.625
0.31488094 0.24702381 0.625
0.31607142 0.24702381 0.625
-0.3894667 0.25576004 0.64400005
-0.38701338 0.25576004 0.64400005
-0.38578668 0.25576004 0.64400005
-0.20404573 0.25099429 0.63200003
-0.2016381 0.25099429 0.63200003
-0.2004343 0.25099429 0.63200003
-0.13904001 0.25099429 0.63200003
-0.1378362 0.25099429 0.63200003
-0.095551439 0.25059715 0.63100004
-0.094349533 0.25059715 0.63100004
-0.092852384 0.24980286 0.62900001
-0.091654286 0.24980286 0.62900001
0.19520667 0.24742001 0.62300003
0.19639334 0.24742001 0.62300003
0.25132 0.2454343 0.61800003
0.28356096 0.24583144 0.61900002
0.28474003 0.24583144 0.61900002
0.28638095 0.24622858 0.62
0.28709811 0.24583144 0.61900002
0.30556667 0.24742001 0.62300003
0.30675334 0.24742001 0.62300003
0.30794001 0.24742001 0.62300003
0.30912668 0.24742001 0.62300003
0.31081143 0.24781714 0.62400001
0.31200001 0.24781714 0.62400001
0.31369048 0.24821429 0.625
0.31488094 0.24821429 0.625
0.31607142 0.24821429 0.625
-0.094050474 0.25100094 0.62900001
0.16764383 0.24820763 0.62200004
0.16882858 0.24820763 0.62200004
0.19520667 0.24860668 0.62300003
0.25014287 0.24661145 0.61800003
0.25132 0.24661145 0.61800003
0.2529057 0.24701047 0.61900002
0.28238192 0.24701047 0.61900002
0.28356096 0.24701047 0.61900002
0.28474003 0.24701047 0.61900002
0.28638095 0.24740952 0.62
0.28709811 0.24701047 0.61900002
0.28827715 0.24701047 0.61900002
0.28945619 0.24701047 0.61900002
0.30270666 0.24820763 0.62200004
0.30556667 0.24860668 0.62300003
0.30675334 0.24860668 0.62300003
0.30744573 0.24820763 0.62200004
0.30962285 0.24900571 0.62400001
0.31081143 0.24900571 0.62400001
0.3125 0.24940476 0.625
0.31369048 0.24940476 0.625
0.31488094 0.24940476 0.625
0.31607142 0.24940476 0.625
-0.37287143 0.2586143 0.64500004
-0.37106669 0.25821334 0.64400005
-0.36918572 0.2586143 0.64500004
-0.15709715 0.25340194 0.63200003
0.16764383 0.24939241 0.62200004
0.2055562 0.24939241 0.62200004
0.21266478 0.24939241 0.62200004
0.23441905 0.24859047 0.62
0.23639905 0.24818952 0.61900002
0.24896571 0.24778858 0.61800003
0.25014287 0.24778858 0.61800003
0.25132 0.24778858 0.61800003
0.2529057 0.24818952 0.61900002
0.28356096 0.24818952 0.61900002
0.28474003 0.24818952 0.61900002
0.28638095 0.24859047 0.62
0.28709811 0.24818952 0.61900002
0.28827715 0.24818952 0.61900002
0.28945619 0.24818952 0.61900002
0.29110476 0.24859047 0.62
0.29228571 0.24859047 0.62
0.29346669 0.24859047 0.62
0.29464763 0.24859047 0.62
0.29582855 0.24859047 0.62
0.30507621 0.24939241 0.62200004
0.30744573 0.24939241 0.62200004
0.30912668 0.24979335 0.62300003
0.31081143 0.25019428 0.62400001
0.31200001 0.25019428 0.62400001
0.31318855 0.25019428 0.62400001
0.31488094 0.25059524 0.625
0.31607142 0.25059524 0.625
-0.37229335 0.25944 0.64400005
-0.15564668 0.25420287 0.63100004
-0.15444477 0.25420287 0.63100004
0.13210095 0.25057715 0.62200004
0.19370858 0.25057715 0.62200004
0.20437144 0.25057715 0.62200004
0.2055562 0.25057715 0.62200004
0.20607619 0.24977143 0.62
0.20961905 0.24977143 0.62
0.23522 0.24936858 0.61900002
0.23639905 0.24936858 0.61900002
0.24896571 0.24896571 0.61800003
0.25014287 0.24896571 0.61800003
0.25172669 0.24936858 0.61900002
0.25249714 0.24896571 0.61800003
0.28356096 0.24936858 0.61900002
0.28474003 0.24936858 0.61900002
0.28591904 0.24936858 0.61900002
0.28709811 0.24936858 0.61900002
0.28827715 0.24936858 0.61900002
0.28945619 0.24936858 0.61900002
0.29063526 0.24936858 0.61900002
0.29181427 0.24936858 0.61900002
0.29299334 0.24936858 0.61900002
0.29464763 0.24977143 0.62
0.29582855 0.24977143 0.62
0.29700953 0.24977143 0.62
0.29819047 0.24977143 0.62
0.30291429 0.24977143 0.62
0.30409521 0.24977143 0.62
0.30527619 0.24977143 0.62
0.30912668 0.25098002 0.62300003
0.31031334 0.25098002 0.62300003
0.31200001 0.25138286 0.62400001
0.31318855 0.25138286 0.62400001
0.31437716 0.25138286 0.62400001
0.31556571 0.25138286 0.62400001
0.11788382 0.25176191 0.62200004
0.11906858 0.25176191 0.62200004
0.12813334 0.25095239 0.62
0.12910572 0.25054762 0.61900002
0.13049524 0.25095239 0.62
0.13210095 0.25176191 0.62200004
0.13328573 0.25176191 0.62200004
0.13447049 0.25176191 0.62200004
0.17356764 0.25176191 0.62200004
0.17419046 0.25095239 0.62
0.17537142 0.25095239 0.62
0.2037143 0.25095239 0.62
0.23798573 0.2497381 0.61700004
0.23916097 0.2497381 0.61700004
0.24738763 0.2497381 0.61700004
0.24896571 0.25014287 0.61800003
0.25014287 0.25014287 0.61800003
0.25172669 0.25054762 0.61900002
0.28356096 0.25054762 0.61900002
0.28474003 0.25054762 0.61900002
0.28591904 0.25054762 0.61900002
0.28709811 0.25054762 0.61900002
0.28827715 0.25054762 0.61900002
0.28945619 0.25054762 0.61900002
0.29063526 0.25054762 0.61900002
0.29181427 0.25054762 0.61900002
0.29299334 0.25054762 0.61900002
0.29464763 0.25095239 0.62
0.29582855 0.25095239 0.62
0.29700953 0.25095239 0.62
0.29819047 0.25095239 0.62
0.29937142 0.25095239 0.62
0.30291429 0.25095239 0.62
0.30409521 0.25095239 0.62
0.30912668 0.25216669 0.62300003
0.31031334 0.25216669 0.62300003
0.31200001 0.25257143 0.62400001
0.31318855 0.25257143 0.62400001
0.31437716 0.25257143 0.62400001
0.31556571 0.25257143 0.62400001
0.11669905 0.25294667 0.62200004
0.11750476 0.25213331 0.62
0.11868571 0.25213331 0.62
0.12792666 0.25172669 0.61900002
0.12910572 0.25172669 0.61900002
0.13028477 0.25172669 0.61900002
0.13146381 0.25172669 0.61900002
0.13285714 0.25213331 0.62
0.13403811 0.25213331 0.62
0.13521904 0.25213331 0.62
0.13684 0.25294667 0.62200004
0.14276381 0.25294667 0.62200004
0.16882858 0.25294667 0.62200004
0.17001334 0.25294667 0.62200004
0.17064762 0.25213331 0.62
0.17238286 0.25294667 0.62200004
0.17537142 0.25213331 0.62
0.19190475 0.25213331 0.62
0.19308572 0.25213331 0.62
0.2371943 0.25132 0.61800003
0.23798573 0.25091335 0.61700004
0.23916097 0.25091335 0.61700004
0.24698669 0.25050667 0.61600006
0.25132 0.25132 0.61800003
0.27486289 0.25132 0.61800003
0.27604002 0.25132 0.61800003
0.27721715 0.25132 0.61800003
0.28192571 0.25132 0.61800003
0.28310287 0.25132 0.61800003
0.28428 0.25132 0.61800003
0.28591904 0.25172669 0.61900002
0.28709811 0.25172669 0.61900002
0.28827715 0.25172669 0.61900002
0.28945619 0.25172669 0.61900002
0.29063526 0.25172669 0.61900002
0.29181427 0.25172669 0.61900002
0.29299334 0.25172669 0.61900002
0.29464763 0.25213331 0.62
0.29582855 0.25213331 0.62
0.29700953 0.25213331 0.62
0.29819047 0.25213331 0.62
0.29937142 0.25213331 0.62
0.3005524 0.25213331 0.62
0.30173334 0.25213331 0.62
0.30291429 0.25213331 0.62
0.30409521 0.25213331 0.62
0.31031334 0.25335333 0.62300003
0.31200001 0.25376001 0.62400001
0.31318855 0.25376001 0.62400001
0.31437716 0.25376001 0.62400001
0.31556571 0.25376001 0.62400001
0.13242857 0.25249714 0.61800003
0.13500096 0.2529057 0.61900002
0.1364 0.25331429 0.62
0.13758096 0.25331429 0.62
0.13876191 0.25331429 0.62
0.1659238 0.25331429 0.62
0.16683523 0.2529057 0.61900002
0.16828571 0.25331429 0.62
0.16919333 0.2529057 0.61900002
0.17037238 0.2529057 0.61900002
0.17127429 0.25249714 0.61800003
0.19159524 0.2529057 0.61900002
0.1927743 0.2529057 0.61900002
0.19426666 0.25331429 0.62
0.19544762 0.25331429 0.62
0.23601715 0.25249714 0.61800003
0.27324289 0.25208858 0.61700004
0.27441809 0.25208858 0.61700004
0.27604002 0.25249714 0.61800003
0.27721715 0.25249714 0.61800003
0.28074858 0.25249714 0.61800003
0.28192571 0.25249714 0.61800003
0.28310287 0.25249714 0.61800003
0.28428 0.25249714 0.61800003
0.28591904 0.2529057 0.61900002
0.28709811 0.2529057 0.61900002
0.28827715 0.2529057 0.61900002
0.28945619 0.2529057 0.61900002
0.29063526 0.2529057 0.61900002
0.29181427 0.2529057 0.61900002
0.29299334 0.2529057 0.61900002
0.29417238 0.2529057 0.61900002
0.29535145 0.2529057 0.61900002
0.29937142 0.25331429 0.62
0.3005524 0.25331429 0.62
0.30173334 0.25331429 0.62
0.30242571 0.2529057 0.61900002
0.31031334 0.25454 0.62300003
0.31200001 0.25494859 0.62400001
0.31318855 0.25494859 0.62400001
0.31437716 0.25494859 0.62400001
0.31556571 0.25494859 0.62400001
0.13618 0.25408477 0.61900002
0.13758096 0.25449523 0.62
0.13876191 0.25449523 0.62
0.13994285 0.25449523 0.62
0.16892001 0.2536743 0.61800003
0.19395334 0.25408477 0.61900002
0.27957144 0.2536743 0.61800003
0.28192571 0.2536743 0.61800003
0.28474003 0.25408477 0.61900002
0.28591904 0.25408477 0.61900002
0.28709811 0.25408477 0.61900002
0.28827715 0.25408477 0.61900002
0.28945619 0.25408477 0.61900002
0.29063526 0.25408477 0.61900002
0.29181427 0.25408477 0.61900002
0.29299334 0.25408477 0.61900002
0.30124667 0.25408477 0.61900002
0.30242571 0.25408477 0.61900002
0.31031334 0.25572667 0.62300003
0.31150001 0.25572667 0.62300003
0.31318855 0.25613713 0.62400001
0.31437716 0.25613713 0.62400001
0.31556571 0.25613713 0.62400001
0.30242571 0.25526381 0.61900002
0.068123817 0.25768572 0.62200004
0.069308572 0.25768572 0.62200004
0.091819048 0.25768572 0.62200004
0.30006763 0.25644287 0.61900002
0.065542854 0.2580381 0.62
