# .PCD v0.7 - Point Cloud Data file format
VERSION 0.7
FIELDS x y z rgba
SIZE 4 4 4 4
TYPE F F F U
COUNT 1 1 1 1
WIDTH 1116
HEIGHT 1
VIEWPOINT 0 0 0 1 0 0 0
POINTS 1116
DATA ascii
-0.20984381 -0.11673905 0.75200003 14174728
0.18044287 -0.13374001 0.74300003 9907457
0.18161334 -0.13356 0.74200004 10761729
0.18302667 -0.13356 0.74200004 11679489
0.18394285 -0.1332 0.74000001 11876353
0.18535237 -0.1332 0.74000001 12138753
0.18650953 -0.13302 0.73900002 12533506
0.18791714 -0.13302 0.73900002 12992514
0.18881239 -0.13266002 0.73700005 13385474
0.19021621 -0.13266002 0.73700005 13778689
0.19136001 -0.13248 0.73600006 13975809
0.19276193 -0.13248 0.73600006 14173185
0.19442764 -0.13266002 0.73700005 14238721
0.19636285 -0.13302 0.73900002 14304769
0.19777049 -0.13302 0.73900002 14107906
0.1991781 -0.13302 0.73900002 13976577
0.20058572 -0.13302 0.73900002 13779201
0.20199333 -0.13302 0.73900002 13647617
0.20340095 -0.13302 0.73900002 13453058
0.2042543 -0.13266002 0.73700005 13256970
0.20565811 -0.13266002 0.73700005 11749395
-0.20841144 -0.11673905 0.75200003 13847050
-0.20697905 -0.11673905 0.75200003 13584905
-0.20582001 -0.11689429 0.75300002 13519369
-0.20438573 -0.11689429 0.75300002 13518853
-0.20295143 -0.11689429 0.75300002 13256450
-0.20151715 -0.11689429 0.75300002 12993285
-0.2006143 -0.11720477 0.75500005 12992520
-0.19917619 -0.11720477 0.75500005 12992775
-0.19773811 -0.11720477 0.75500005 10896134
-0.19656001 -0.11736 0.75600004 8849667
-0.19615239 -0.11798096 0.76000005 4456705
-0.19470477 -0.11798096 0.76000005 131333
-0.19325715 -0.11798096 0.76000005 395273
-0.19496097 -0.10798953 0.76100004 4260360
-0.19351144 -0.10798953 0.76100004 2687492
-0.23699716 -0.10654 0.76100004 4602676
-0.23554763 -0.10654 0.76100004 4403238
-0.23409811 -0.10654 0.76100004 5581591
-0.23264858 -0.10654 0.76100004 6758668
-0.23089525 -0.10640001 0.76000005 8069634
-0.22884382 -0.10612 0.75800002 9380353
-0.22680001 -0.10584 0.75600004 9642753
-0.22536001 -0.10584 0.75600004 9971201
-0.22392 -0.10584 0.75600004 10365441
-0.22248001 -0.10584 0.75600004 10824193
-0.22104001 -0.10584 0.75600004 11086337
-0.21930952 -0.10570001 0.75500005 11413761
-0.21787144 -0.10570001 0.75500005 11544833
-0.21643335 -0.10570001 0.75500005 11675138
-0.21499525 -0.10570001 0.75500005 11677955
-0.21355715 -0.10570001 0.75500005 11743234
-0.21211907 -0.10570001 0.75500005 11874306
-0.21068096 -0.10570001 0.75500005 12005634
-0.20924287 -0.10570001 0.75500005 11874818
-0.20808001 -0.10584 0.75600004 11743746
-0.20664001 -0.10584 0.75600004 11678209
-0.2052 -0.10584 0.75600004 11612673
-0.20429905 -0.10612 0.75800002 11482625
-0.20339048 -0.10640001 0.76000005 11350529
-0.20194286 -0.10640001 0.76000005 10825217
-0.20049526 -0.10640001 0.76000005 10367746
-0.19930953 -0.10654 0.76100004 10237186
-0.19786 -0.10654 0.76100004 10108164
-0.19641048 -0.10654 0.76100004 8659719
-0.19496097 -0.10654 0.76100004 7279115
0.17902762 -0.098359056 0.74300003 8004097
-0.23668572 -0.10929525 0.76000005 5517863
-0.23523811 -0.10929525 0.76000005 5843737
-0.23379049 -0.10929525 0.76000005 7286027
-0.23234287 -0.10929525 0.76000005 8790278
-0.23028761 -0.10900762 0.75800002 9380353
-0.22824 -0.10872 0.75600004 9970433
-0.22680001 -0.10872 0.75600004 10234625
-0.22506192 -0.10857619 0.75500005 10562049
-0.22362383 -0.10857619 0.75500005 10956289
-0.22218573 -0.10857619 0.75500005 11349505
-0.22074763 -0.10857619 0.75500005 11611649
-0.21872857 -0.10828857 0.75300002 11939329
-0.21729429 -0.10828857 0.75300002 12267265
-0.21585999 -0.10828857 0.75300002 12660481
-0.21442571 -0.10828857 0.75300002 12726017
-0.21299143 -0.10828857 0.75300002 12857089
-0.21155715 -0.10828857 0.75300002 12661249
-0.21012287 -0.10828857 0.75300002 12465153
-0.20868857 -0.10828857 0.75300002 12334593
-0.20780478 -0.10857619 0.75500005 12203521
-0.20636667 -0.10857619 0.75500005 12138242
-0.20492859 -0.10857619 0.75500005 12138753
-0.20349048 -0.10857619 0.75500005 11942913
-0.20232001 -0.10872 0.75600004 11811329
-0.20141144 -0.10900762 0.75800002 11483137
-0.20049526 -0.10929525 0.76000005 11219718
-0.19904763 -0.10929525 0.76000005 10960395
-0.19760001 -0.10929525 0.76000005 10697737
-0.19641048 -0.10943905 0.76100004 5964550
-0.19496097 -0.10943905 0.76100004 1245956
-0.19351144 -0.10943905 0.76100004 1180418
0.17195144 -0.12524857 0.74300003 524565
0.17336667 -0.12524857 0.74300003 4924686
0.17454667 -0.12508002 0.74200004 9319944
0.17548572 -0.12474285 0.74000001 9973506
0.17665619 -0.1245743 0.73900002 10693889
-0.22018096 -0.14510286 0.75800002 9390149
-0.21873716 -0.14510286 0.75800002 9849415
-0.21786667 -0.14548573 0.76000005 10374464
-0.21670382 -0.14567715 0.76100004 10439994
-0.21497144 -0.14548573 0.76000005 10571320
-0.21352382 -0.14548573 0.76000005 10440503
0.17806382 -0.1245743 0.73900002 11349249
0.17947143 -0.1245743 0.73900002 12071681
0.18038954 -0.12423715 0.73700005 12202241
0.18154669 -0.12406857 0.73600006 12398337
0.18245143 -0.12373143 0.73400003 12727809
0.18384953 -0.12373143 0.73400003 13055489
0.18474287 -0.1233943 0.73200005 13516033
0.18613715 -0.1233943 0.73200005 14042114
0.18753144 -0.1233943 0.73200005 14172931
0.18866761 -0.12322572 0.73100001 14238470
0.19006 -0.12322572 0.73100001 14894858
0.19145238 -0.12322572 0.73100001 15551241
0.19284476 -0.12322572 0.73100001 15551241
0.19423714 -0.12322572 0.73100001 15551493
0.19562952 -0.12322572 0.73100001 15486209
0.19729145 -0.1233943 0.73200005 15421186
0.19868572 -0.1233943 0.73200005 15224580
0.20008001 -0.1233943 0.73200005 15093506
0.20147431 -0.1233943 0.73200005 14831105
0.20286858 -0.1233943 0.73200005 14568705
0.20426287 -0.1233943 0.73200005 14304001
0.20621906 -0.12373143 0.73400003 14106369
0.20761715 -0.12373143 0.73400003 13777665
0.20901524 -0.12373143 0.73400003 13515521
0.21041334 -0.12373143 0.73400003 12664577
0.21181144 -0.12373143 0.73400003 11816224
0.21320952 -0.12373143 0.73400003 8932671
0.21460763 -0.12373143 0.73400003 6114634
0.18020001 -0.098226674 0.74200004 8463105
0.18112381 -0.097961903 0.74000001 8791298
0.18253334 -0.097961903 0.74000001 9182210
0.18394285 -0.097961903 0.74000001 9707010
0.18510191 -0.097829521 0.73900002 10296321
0.18650953 -0.097829521 0.73900002 10298881
-0.23688 -0.12312 0.75600004 8138783
-0.23544002 -0.12312 0.75600004 9054990
-0.23369049 -0.12295716 0.75500005 9972231
-0.2322524 -0.12295716 0.75500005 10824193
-0.23081429 -0.12295716 0.75500005 11741953
-0.22876857 -0.12263143 0.75300002 11939329
-0.22733429 -0.12263143 0.75300002 12135937
-0.2256 -0.12246858 0.75200003 12594946
-0.22416763 -0.12246858 0.75200003 13119490
-0.22273524 -0.12246858 0.75200003 13584130
-0.22130287 -0.12246858 0.75200003 14040076
-0.21987049 -0.12246858 0.75200003 14705431
-0.2184381 -0.12246858 0.75200003 15361060
-0.21700571 -0.12246858 0.75200003 15295025
-0.21557334 -0.12246858 0.75200003 15229225
-0.21414095 -0.12246858 0.75200003 15229217
-0.21270858 -0.12246858 0.75200003 15229482
-0.2112762 -0.12246858 0.75200003 15164212
-0.20984381 -0.12246858 0.75200003 15164455
-0.20841144 -0.12246858 0.75200003 15033625
-0.20697905 -0.12246858 0.75200003 14902546
-0.20582001 -0.12263143 0.75300002 14574347
-0.20438573 -0.12263143 0.75300002 14245127
-0.20295143 -0.12263143 0.75300002 14047492
-0.20151715 -0.12263143 0.75300002 13849866
-0.20008285 -0.12263143 0.75300002 13518864
-0.19864857 -0.12263143 0.75300002 13261068
-0.19773811 -0.12295716 0.75500005 10567431
-0.19630001 -0.12295716 0.75500005 7864580
-0.19486192 -0.12295716 0.75500005 4194561
-0.19342382 -0.12295716 0.75500005 590342
-0.19198573 -0.12295716 0.75500005 1380619
0.18791714 -0.097829521 0.73900002 10297857
0.18881239 -0.097564772 0.73700005 10891009
0.19021621 -0.097564772 0.73700005 11480577
0.18600477 -0.13687144 0.73700005 10372392
0.18740858 -0.13687144 0.73700005 11549991
-0.23532858 -0.10272858 0.76500005 3814188
-0.23387145 -0.10272858 0.76500005 4010275
-0.23180667 -0.10246 0.76300001 4795162
-0.23035333 -0.10246 0.76300001 5644559
-0.2289 -0.10246 0.76300001 6364676
0.19636285 -0.13724287 0.73900002 12208679
0.19777049 -0.13724287 0.73900002 11883049
0.19944762 -0.13742857 0.74000001 11620910
0.20085715 -0.13742857 0.74000001 10310451
0.20226666 -0.13742857 0.74000001 9064253
0.20367619 -0.13742857 0.74000001 7030600
0.20508571 -0.13742857 0.74000001 5000268
-0.22685048 -0.10219143 0.76100004 7150594
-0.22540095 -0.10219143 0.76100004 7742209
-0.22365715 -0.10205714 0.76000005 8333569
-0.22220954 -0.10205714 0.76000005 8660225
-0.22076192 -0.10205714 0.76000005 9050882
0.16984761 -0.11064762 0.74000001 393729
0.17125715 -0.11064762 0.74000001 131329
0.17266667 -0.11064762 0.74000001 4794113
0.17407618 -0.11064762 0.74000001 9380353
0.17524858 -0.11049809 0.73900002 10036738
0.17689525 -0.11064762 0.74000001 10758657
0.17806382 -0.11049809 0.73900002 10889473
0.17947143 -0.11049809 0.73900002 11020545
0.18014477 -0.11004953 0.73600006 11546369
0.18154669 -0.11004953 0.73600006 12070658
0.18245143 -0.10975048 0.73400003 12333315
0.18384953 -0.10975048 0.73400003 12661507
0.18524763 -0.10975048 0.73400003 12926979
0.18613715 -0.10945144 0.73200005 13257223
0.18753144 -0.10945144 0.73200005 13453324
0.18892573 -0.10945144 0.73200005 13649689
0.19032001 -0.10945144 0.73200005 14174758
0.1917143 -0.10945144 0.73200005 14700068
0.19284476 -0.1093019 0.73100001 14766115
0.19423714 -0.1093019 0.73100001 14899988
0.19589716 -0.10945144 0.73200005 14832901
0.19729145 -0.10945144 0.73200005 14766595
0.19868572 -0.10945144 0.73200005 14633985
0.20008001 -0.10945144 0.73200005 14566913
0.20147431 -0.10945144 0.73200005 14173953
0.20342286 -0.10975048 0.73400003 13846785
0.20482096 -0.10975048 0.73400003 13649409
0.20621906 -0.10975048 0.73400003 13452033
0.20818287 -0.11004953 0.73600006 13252610
0.20958479 -0.11004953 0.73600006 13121025
0.21098667 -0.11004953 0.73600006 12466689
0.21238859 -0.11004953 0.73600006 11879443
0.21408097 -0.11019906 0.73700005 10503461
0.21548478 -0.11019906 0.73700005 9127481
-0.21931429 -0.10205714 0.76000005 9315587
-0.21786667 -0.10205714 0.76000005 9641730
-0.21584952 -0.10178857 0.75800002 9840641
-0.21440572 -0.10178857 0.75800002 10038529
-0.2129619 -0.10178857 0.75800002 10103297
-0.21151811 -0.10178857 0.75800002 10167554
-0.21062858 -0.10205714 0.76000005 10037507
-0.20918097 -0.10205714 0.76000005 9906435
-0.20773335 -0.10205714 0.76000005 9775619
-0.23895048 -0.11478286 0.75800002 5193519
-0.23688 -0.11448001 0.75600004 5910558
-0.23544002 -0.11448001 0.75600004 7287310
-0.23400001 -0.11448001 0.75600004 8725513
-0.23256001 -0.11448001 0.75600004 9578244
-0.23081429 -0.11432858 0.75500005 10430210
-0.2293762 -0.11432858 0.75500005 10759169
-0.22733429 -0.11402572 0.75300002 11152129
-0.22590001 -0.11402572 0.75300002 11546881
-0.22446573 -0.11402572 0.75300002 11940097
-0.22303145 -0.11402572 0.75300002 12334593
-0.22159714 -0.11402572 0.75300002 12728066
-0.22016285 -0.11402572 0.75300002 12990468
-0.21872857 -0.11402572 0.75300002 13318408
-0.21729429 -0.11402572 0.75300002 13515277
-0.21557334 -0.11387429 0.75200003 13712139
-0.21414095 -0.11387429 0.75200003 13712393
-0.21270858 -0.11387429 0.75200003 13712902
-0.2112762 -0.11387429 0.75200003 13648131
-0.20984381 -0.11387429 0.75200003 13582853
-0.20841144 -0.11387429 0.75200003 13452295
-0.20697905 -0.11387429 0.75200003 13386248
-0.20582001 -0.11402572 0.75300002 13256970
-0.20438573 -0.11402572 0.75300002 13123846
-0.20295143 -0.11402572 0.75300002 12927747
-0.2020524 -0.11432858 0.75500005 12729858
-0.2006143 -0.11432858 0.75500005 12665345
-0.19917619 -0.11432858 0.75500005 12666374
-0.19800001 -0.11448001 0.75600004 11029003
-0.19760001 -0.11508572 0.76000005 9440774
-0.19641048 -0.11523715 0.76100004 4784385
-0.19547334 -0.11554 0.76300001 196866
-0.19402 -0.11554 0.76300001 330244
-0.19256668 -0.11554 0.76300001 525839
-0.20628573 -0.10205714 0.76000005 9579268
-0.20510763 -0.10219143 0.76100004 9447941
-0.20419332 -0.10246 0.76300001 9251331
-0.20274 -0.10246 0.76300001 9120770
-0.20128666 -0.10246 0.76300001 8990209
-0.20035715 -0.10272858 0.76500005 8662529
-0.23750667 -0.13066477 0.75800002 6832431
-0.23544002 -0.13032001 0.75600004 8337694
-0.23400001 -0.13032001 0.75600004 9907216
-0.2322524 -0.13014764 0.75500005 10693635
-0.23081429 -0.13014764 0.75500005 11480322
-0.2293762 -0.13014764 0.75500005 12070401
-0.22733429 -0.12980285 0.75300002 12660481
-0.22590001 -0.12980285 0.75300002 12988929
-0.22446573 -0.12980285 0.75300002 13383681
-0.22273524 -0.12963048 0.75200003 13646081
-0.22130287 -0.12963048 0.75200003 13906945
-0.21987049 -0.12963048 0.75200003 14434305
-0.2184381 -0.12963048 0.75200003 14961921
-0.21700571 -0.12963048 0.75200003 14895874
-0.21557334 -0.12963048 0.75200003 14895618
-0.21414095 -0.12963048 0.75200003 14830594
-0.21270858 -0.12963048 0.75200003 14831363
-0.21155715 -0.12980285 0.75300002 14765828
-0.21012287 -0.12980285 0.75300002 14766084
-0.20868857 -0.12980285 0.75300002 14502660
-0.20725429 -0.12980285 0.75300002 14305027
-0.20582001 -0.12980285 0.75300002 14042627
-0.20438573 -0.12980285 0.75300002 13780226
-0.20349048 -0.13014764 0.75500005 13516289
-0.2020524 -0.13014764 0.75500005 13254401
-0.20088001 -0.13032001 0.75600004 12861953
-0.19944002 -0.13032001 0.75600004 12469762
-0.19800001 -0.13032001 0.75600004 10958851
-0.19708 -0.13066477 0.75800002 9448962
-0.19563618 -0.13066477 0.75800002 4784385
-0.19419238 -0.13066477 0.75800002 131591
-0.19890001 -0.10272858 0.76500005 8400129
-0.19795905 -0.10299715 0.76700002 7218945
0.19136001 -0.09743239 0.73600006 11677185
-0.23369049 -0.13446191 0.75500005 8273705
-0.2322524 -0.13446191 0.75500005 9646870
-0.23081429 -0.13446191 0.75500005 11088396
-0.2293762 -0.13446191 0.75500005 11612418
-0.22793812 -0.13446191 0.75500005 12203265
-0.2265 -0.13446191 0.75500005 12597505
-0.22506192 -0.13446191 0.75500005 13056257
-0.22303145 -0.13410571 0.75300002 13580801
-0.22159714 -0.13410571 0.75300002 14105089
-0.22016285 -0.13410571 0.75300002 14236417
-0.21872857 -0.13410571 0.75300002 14367489
-0.21729429 -0.13410571 0.75300002 14433281
-0.21585999 -0.13410571 0.75300002 14564609
-0.21442571 -0.13410571 0.75300002 14499329
-0.21299143 -0.13410571 0.75300002 14433793
-0.21211907 -0.13446191 0.75500005 14368257
-0.21068096 -0.13446191 0.75500005 14302721
-0.20924287 -0.13446191 0.75500005 14106113
-0.20780478 -0.13446191 0.75500005 13909761
-0.20636667 -0.13446191 0.75500005 13713409
-0.2052 -0.13464001 0.75600004 13516545
-0.20376001 -0.13464001 0.75600004 13319681
-0.20285524 -0.13499619 0.75800002 13188353
-0.20141144 -0.13499619 0.75800002 12532737
-0.20049526 -0.13535239 0.76000005 11942914
-0.19930953 -0.13553049 0.76100004 11353092
-0.19786 -0.13553049 0.76100004 10765334
-0.19641048 -0.13553049 0.76100004 8268841
0.19276193 -0.09743239 0.73600006 11873793
0.19363619 -0.097167619 0.73400003 11874818
0.1950343 -0.097167619 0.73400003 11940097
0.19696763 -0.09743239 0.73600006 11677953
0.19863907 -0.097564772 0.73700005 11481089
0.20058572 -0.097829521 0.73900002 11481090
0.20199333 -0.097829521 0.73900002 11481089
0.20340095 -0.097829521 0.73900002 11218945
0.20508571 -0.097961903 0.74000001 10956291
0.20649524 -0.097961903 0.74000001 10562821
0.20790476 -0.097961903 0.74000001 10235920
0.20931429 -0.097961903 0.74000001 8597276
0.21072382 -0.097961903 0.74000001 6961960
0.19422001 -0.087505721 0.74700004 1971486
0.1873562 -0.087622859 0.74800003 1117452
0.18878095 -0.087622859 0.74800003 985358
0.18995143 -0.087505721 0.74700004 854282
0.19137429 -0.087505721 0.74700004 1313285
0.18593144 -0.089047618 0.74800003 3412239
0.18710573 -0.08892858 0.74700004 3870985
0.18852858 -0.08892858 0.74700004 3808771
0.18995143 -0.08892858 0.74700004 3812355
0.18234763 -0.090109527 0.74500006 3873289
-0.22599334 -0.096646667 0.76300001 3549476
-0.22454 -0.096646667 0.76300001 3744285
-0.22308666 -0.096646667 0.76300001 3809303
-0.22279525 -0.097153336 0.76700002 3938578
-0.23554763 -0.10509048 0.76100004 3814701
-0.23471333 -0.10536667 0.76300001 4533536
-0.23326001 -0.10536667 0.76300001 5317393
-0.23119906 -0.10509048 0.76100004 6825218
-0.22974953 -0.10509048 0.76100004 8329986
-0.228 -0.10495239 0.76000005 8659458
-0.2265524 -0.10495239 0.76000005 9051650
-0.22451238 -0.10467619 0.75800002 9511938
-0.22306857 -0.10467619 0.75800002 9969665
-0.22104001 -0.1044 0.75600004 10298113
-0.21930952 -0.10426191 0.75500005 10624257
-0.21816 -0.1044 0.75600004 10823425
-0.21672001 -0.1044 0.75600004 11019011
-0.21499525 -0.10426191 0.75500005 11150597
-0.21355715 -0.10426191 0.75500005 11216644
-0.21211907 -0.10426191 0.75500005 11284228
-0.21096 -0.1044 0.75600004 11348484
-0.20952001 -0.1044 0.75600004 11151876
-0.20808001 -0.1044 0.75600004 10955266
-0.20664001 -0.1044 0.75600004 10825985
-0.20574285 -0.10467619 0.75800002 10760449
-0.20483811 -0.10495239 0.76000005 10564097
-0.20365809 -0.10509048 0.76100004 10430721
-0.20220858 -0.10509048 0.76100004 10235650
-0.20075905 -0.10509048 0.76100004 10040834
-0.19930953 -0.10509048 0.76100004 9844226
-0.19786 -0.10509048 0.76100004 9582082
-0.19692667 -0.10536667 0.76300001 8660482
-0.19547334 -0.10536667 0.76300001 7809550
-0.22075716 -0.096900001 0.76500005 4397582
0.1733705 -0.11721811 0.73700005 9319427
0.1747743 -0.11721811 0.73700005 10168578
0.17665619 -0.11753619 0.73900002 11086081
0.17758192 -0.11721811 0.73700005 11610369
0.17898573 -0.11721811 0.73700005 12135681
0.18014477 -0.11705906 0.73600006 12267778
0.18105334 -0.11674096 0.73400003 12398339
0.18245143 -0.11674096 0.73400003 12994821
0.18384953 -0.11674096 0.73400003 13583108
0.18474287 -0.11642287 0.73200005 14180867
0.18588285 -0.11626381 0.73100001 14836247
0.18727525 -0.11626381 0.73100001 14902060
0.18866761 -0.11626381 0.73100001 14968876
0.18954001 -0.11594572 0.72900003 15625773
0.19092858 -0.11594572 0.72900003 16282940
0.19231716 -0.11594572 0.72900003 16351307
0.19423714 -0.11626381 0.73100001 16414004
0.19562952 -0.11626381 0.73100001 16215838
0.19729145 -0.11642287 0.73200005 16018965
0.19868572 -0.11642287 0.73200005 15953421
0.20008001 -0.11642287 0.73200005 15887888
0.20147431 -0.11642287 0.73200005 15292948
0.20286858 -0.11642287 0.73200005 14768139
0.20426287 -0.11642287 0.73200005 14702338
0.20621906 -0.11674096 0.73400003 14635266
0.20761715 -0.11674096 0.73400003 14042370
0.20901524 -0.11674096 0.73400003 13516290
0.21098667 -0.11705906 0.73600006 12992001
0.21238859 -0.11705906 0.73600006 12533263
0.21495238 -0.11769524 0.74000001 11288348
0.21636191 -0.11769524 0.74000001 10046774
0.21777143 -0.11769524 0.74000001 7555919
-0.23750667 -0.11045143 0.75800002 5060399
-0.23668572 -0.11074286 0.76000005 5910817
-0.23523811 -0.11074286 0.76000005 6826516
-0.23379049 -0.11074286 0.76000005 7939847
-0.23173143 -0.11045143 0.75800002 9053188
-0.22968002 -0.11016001 0.75600004 9708545
-0.22824 -0.11016001 0.75600004 10363905
-0.2265 -0.11001429 0.75500005 10627841
-0.22506192 -0.11001429 0.75500005 10955265
-0.22362383 -0.11001429 0.75500005 11348226
-0.22218573 -0.11001429 0.75500005 11741442
-0.22016285 -0.10972285 0.75300002 12004866
-0.21872857 -0.10972285 0.75300002 12332033
-0.21729429 -0.10972285 0.75300002 12594433
-0.21585999 -0.10972285 0.75300002 12922625
-0.21442571 -0.10972285 0.75300002 12988162
-0.21299143 -0.10972285 0.75300002 13053698
-0.21155715 -0.10972285 0.75300002 12857858
-0.21012287 -0.10972285 0.75300002 12727554
-0.20868857 -0.10972285 0.75300002 12596738
-0.20725429 -0.10972285 0.75300002 12531458
-0.20582001 -0.10972285 0.75300002 12400898
-0.20492859 -0.11001429 0.75500005 12336129
-0.20349048 -0.11001429 0.75500005 12205569
-0.2020524 -0.11001429 0.75500005 12007169
-0.20088001 -0.11016001 0.75600004 11810305
-0.19996762 -0.11045143 0.75800002 11613706
0.17102572 -0.11472096 0.73900002 131340
0.17243333 -0.11472096 0.73900002 4661764
0.17384095 -0.11472096 0.73900002 9186563
0.17524858 -0.11472096 0.73900002 10170626
0.17665619 -0.11472096 0.73900002 11152129
0.17806382 -0.11472096 0.73900002 11412737
0.17898573 -0.11441048 0.73700005 11676674
0.18014477 -0.11425525 0.73600006 11872771
0.18154669 -0.11425525 0.73600006 12136196
0.18245143 -0.11394477 0.73400003 12930053
0.18384953 -0.11394477 0.73400003 13716998
0.18474287 -0.1136343 0.73200005 13849863
0.18613715 -0.1136343 0.73200005 13982747
0.18727525 -0.11347905 0.73100001 14574640
0.18815143 -0.11316857 0.72900003 15165742
0.18954001 -0.11316857 0.72900003 15694635
-0.23750667 -0.12633334 0.75800002 8009250
-0.23544002 -0.126 0.75600004 9056784
-0.22974953 -0.13987905 0.76100004 11089687
-0.2274 -0.13932763 0.75800002 11612932
-0.22536001 -0.13896 0.75600004 12201730
-0.22392 -0.13896 0.75600004 12728577
-0.22248001 -0.13896 0.75600004 13318913
-0.22074763 -0.1387762 0.75500005 13581057
-0.21930952 -0.1387762 0.75500005 13908993
-0.21787144 -0.1387762 0.75500005 13974529
-0.21672001 -0.13896 0.75600004 14105857
-0.21528 -0.13896 0.75600004 14040065
-0.21384001 -0.13896 0.75600004 14039809
-0.21240002 -0.13896 0.75600004 13908737
-0.21096 -0.13896 0.75600004 13843201
-0.21007429 -0.13932763 0.75800002 13712898
-0.20863049 -0.13932763 0.75800002 13582081
-0.20718667 -0.13932763 0.75800002 13318913
-0.20574285 -0.13932763 0.75800002 13056513
-0.20483811 -0.13969524 0.76000005 12794881
-0.20339048 -0.13969524 0.76000005 12598786
-0.20194286 -0.13969524 0.76000005 11809539
-0.20049526 -0.13969524 0.76000005 11089938
-0.23400001 -0.126 0.75600004 10103560
-0.2322524 -0.12583335 0.75500005 10955265
-0.23081429 -0.12583335 0.75500005 11873793
-0.22876857 -0.12550001 0.75300002 12136193
-0.22733429 -0.12550001 0.75300002 12464385
-0.22590001 -0.12550001 0.75300002 12727041
-0.22446573 -0.12550001 0.75300002 13054721
-0.22273524 -0.12533334 0.75200003 13447938
-0.22130287 -0.12533334 0.75200003 13841674
-0.21987049 -0.12533334 0.75200003 14638867
-0.2184381 -0.12533334 0.75200003 15491100
-0.21700571 -0.12533334 0.75200003 15491365
-0.21557334 -0.12533334 0.75200003 15491101
-0.21414095 -0.12533334 0.75200003 15425301
-0.21270858 -0.12533334 0.75200003 15359776
-0.2112762 -0.12533334 0.75200003 15557675
-0.20984381 -0.12533334 0.75200003 15754525
-0.20868857 -0.12550001 0.75300002 15558159
-0.20697905 -0.12533334 0.75200003 15425291
-0.20582001 -0.12550001 0.75300002 14702343
-0.20438573 -0.12550001 0.75300002 14046212
-0.20295143 -0.12550001 0.75300002 13783298
-0.2020524 -0.12583335 0.75500005 13520641
-0.2006143 -0.12583335 0.75500005 13387009
-0.19917619 -0.12583335 0.75500005 13324806
-0.19773811 -0.12583335 0.75500005 10696716
-0.19630001 -0.12583335 0.75500005 8128774
-0.19486192 -0.12583335 0.75500005 4129025
-0.19291143 -0.12550001 0.75300002 131332
-0.19147715 -0.12550001 0.75300002 1051143
0.19092858 -0.11316857 0.72900003 16216619
0.19231716 -0.11316857 0.72900003 16084523
0.19370572 -0.11316857 0.72900003 16019497
0.19562952 -0.11347905 0.73100001 15889192
0.1970219 -0.11347905 0.73100001 15756060
0.1984143 -0.11347905 0.73100001 15689231
0.20008001 -0.1136343 0.73200005 15621903
0.20147431 -0.1136343 0.73200005 14965008
0.20286858 -0.1136343 0.73200005 14373898
0.20426287 -0.1136343 0.73200005 14307332
0.20621906 -0.11394477 0.73400003 14306563
0.20761715 -0.11394477 0.73400003 13714690
0.20901524 -0.11394477 0.73400003 13187585
0.21098667 -0.11425525 0.73600006 12794881
0.21238859 -0.11425525 0.73600006 12401931
0.21379049 -0.11425525 0.73600006 11288341
-0.19904763 -0.11074286 0.76000005 10958100
-0.19760001 -0.11074286 0.76000005 10368266
-0.19615239 -0.11074286 0.76000005 5571073
-0.19496097 -0.11088858 0.76100004 786689
-0.19351144 -0.11088858 0.76100004 1115649
-0.21872668 -0.096646667 0.76300001 4922121
-0.21727334 -0.096646667 0.76300001 5119492
-0.21638572 -0.096900001 0.76500005 5382660
-0.21492858 -0.096900001 0.76500005 5514501
0.17407618 -0.12051429 0.74000001 9317634
0.17524858 -0.12035143 0.73900002 10300674
0.17665619 -0.12035143 0.73900002 11283457
0.17806382 -0.12035143 0.73900002 11545601
0.17898573 -0.12002572 0.73700005 11874049
0.18038954 -0.12002572 0.73700005 12136705
0.18105334 -0.11953715 0.73400003 12398849
0.18245143 -0.11953715 0.73400003 12993537
0.18334858 -0.11921144 0.73200005 13581057
0.18474287 -0.11921144 0.73200005 14112769
0.18588285 -0.11904857 0.73100001 14702095
0.18727525 -0.11904857 0.73100001 14701852
0.18815143 -0.11872286 0.72900003 14702109
0.18954001 -0.11872286 0.72900003 15425055
0.19092858 -0.11872286 0.72900003 16216376
0.19231716 -0.11872286 0.72900003 16420178
0.19370572 -0.11872286 0.72900003 16674094
0.19562952 -0.11904857 0.73100001 16212747
0.1970219 -0.11904857 0.73100001 15820042
0.1984143 -0.11904857 0.73100001 15820809
0.20008001 -0.11921144 0.73200005 15819272
0.20147431 -0.11921144 0.73200005 15226888
0.20286858 -0.11921144 0.73200005 14701572
0.20426287 -0.11921144 0.73200005 14635777
0.20621906 -0.11953715 0.73400003 14570241
0.20761715 -0.11953715 0.73400003 13973761
0.20958479 -0.11986287 0.73600006 13448961
0.21127336 -0.12002572 0.73700005 12989953
0.21325429 -0.12035143 0.73900002 12599831
0.21466191 -0.12035143 0.73900002 11094572
0.21636191 -0.12051429 0.74000001 9588282
0.21777143 -0.12051429 0.74000001 7557960
-0.21347144 -0.096900001 0.76500005 5712132
-0.21146001 -0.096646667 0.76300001 5646852
-0.21055715 -0.096900001 0.76500005 5647106
-0.22744666 -0.098100007 0.76300001 3549724
-0.22599334 -0.098100007 0.76300001 3877144
-0.22454 -0.098100007 0.76300001 4268051
-0.22308666 -0.098100007 0.76300001 5120782
-0.2222143 -0.098357148 0.76500005 6038284
0.17336667 -0.10118953 0.74300003 6299137
0.17454667 -0.10105333 0.74200004 8003073
0.17596 -0.10105333 0.74200004 8199681
0.17761239 -0.10118953 0.74300003 8395777
0.17878668 -0.10105333 0.74200004 8856065
0.17971428 -0.10078095 0.74000001 9379585
0.18112381 -0.10078095 0.74000001 9709313
0.18228666 -0.10064476 0.73900002 10101761
0.1836943 -0.10064476 0.73900002 10496513
0.18510191 -0.10064476 0.73900002 10889217
0.18650953 -0.10064476 0.73900002 11282177
0.18740858 -0.10037239 0.73700005 11741185
0.18855619 -0.1002362 0.73600006 11808002
0.18995811 -0.1002362 0.73600006 11938561
0.19084001 -0.099963814 0.73400003 12136705
0.19223809 -0.099963814 0.73400003 12333057
0.19363619 -0.099963814 0.73400003 12399105
0.1950343 -0.099963814 0.73400003 12464385
0.1964324 -0.099963814 0.73400003 12529921
0.19783047 -0.099963814 0.73400003 12595969
0.19977143 -0.1002362 0.73600006 12203265
0.20117335 -0.1002362 0.73600006 11808769
0.20257525 -0.1002362 0.73600006 11745281
0.2042543 -0.10037239 0.73700005 11744513
0.17336667 -0.12807904 0.74300003 5976102
0.17525239 -0.12842382 0.74500006 8858899
0.17548572 -0.12756191 0.74000001 9645313
0.17689525 -0.12756191 0.74000001 10366209
0.17830476 -0.12756191 0.74000001 11087361
0.17971428 -0.12756191 0.74000001 11809537
0.18087906 -0.12738952 0.73900002 11940353
0.17761239 -0.13232477 0.74300003 9843727
0.17902762 -0.13232477 0.74300003 10300673
0.18044287 -0.13232477 0.74300003 10825473
0.18161334 -0.13214667 0.74200004 11417345
0.18302667 -0.13214667 0.74200004 12007169
0.18394285 -0.13179047 0.74000001 12203777
0.18535237 -0.13179047 0.74000001 12466945
0.18650953 -0.13161239 0.73900002 12665089
0.18791714 -0.13161239 0.73900002 12926977
0.18881239 -0.13125621 0.73700005 13450242
0.18995811 -0.13107811 0.73600006 14040833
0.19136001 -0.13107811 0.73600006 14172417
0.19276193 -0.13107811 0.73600006 14369795
0.19442764 -0.13125621 0.73700005 14566661
0.19583145 -0.13125621 0.73700005 14763011
0.19723526 -0.13125621 0.73700005 14566145
0.19863907 -0.13125621 0.73700005 14435585
0.19977143 -0.13107811 0.73600006 14040321
0.20144668 -0.13125621 0.73700005 13648129
0.20285049 -0.13125621 0.73700005 13780481
0.2042543 -0.13125621 0.73700005 13976838
0.20537905 -0.13107811 0.73600006 13387018
0.20678097 -0.13107811 0.73600006 12797983
0.20818287 -0.13107811 0.73600006 10501171
0.18228666 -0.12738952 0.73900002 12072705
0.18319716 -0.12704477 0.73700005 12531457
0.18435049 -0.12687238 0.73600006 13056001
0.18575239 -0.12687238 0.73600006 13318913
0.18664572 -0.12652762 0.73400003 13583105
0.18804382 -0.12652762 0.73400003 13845506
0.18892573 -0.12618285 0.73200005 14107906
0.19032001 -0.12618285 0.73200005 14500099
0.1917143 -0.12618285 0.73200005 14960386
0.19284476 -0.12601048 0.73100001 14960897
0.19450286 -0.12618285 0.73200005 15026433
0.19589716 -0.12618285 0.73200005 14960897
0.19729145 -0.12618285 0.73200005 14960897
0.19868572 -0.12618285 0.73200005 14829825
0.20062667 -0.12652762 0.73400003 14764289
0.20202477 -0.12652762 0.73400003 14500609
0.20342286 -0.12652762 0.73400003 14238209
0.20482096 -0.12652762 0.73400003 14040577
0.20621906 -0.12652762 0.73400003 13843201
0.20818287 -0.12687238 0.73600006 13515777
0.20901524 -0.12652762 0.73400003 13125135
0.21098667 -0.12687238 0.73600006 11223326
0.21181144 -0.12652762 0.73400003 9327672
0.21320952 -0.12652762 0.73400003 7557459
0.2062162 -0.10064476 0.73900002 11547137
0.20762381 -0.10064476 0.73900002 11350786
0.20903143 -0.10064476 0.73900002 10761987
0.21043906 -0.10064476 0.73900002 10172685
0.21127336 -0.10037239 0.73700005 7682839
0.21267717 -0.10037239 0.73700005 5259050
-0.22018 -0.098100007 0.76300001 6431754
-0.21815334 -0.097842865 0.76100004 6823686
-0.21670382 -0.097842865 0.76100004 7086851
-0.21582 -0.098100007 0.76300001 7349508
-0.21436667 -0.098100007 0.76300001 7481092
-0.21291333 -0.098100007 0.76300001 7612164
-0.21090572 -0.097842865 0.76100004 7677699
-0.21000667 -0.098100007 0.76300001 7743234
-0.20855333 -0.098100007 0.76300001 7612162
-0.20764287 -0.098357148 0.76500005 7546881
-0.20618573 -0.098357148 0.76500005 7154177
-0.20526381 -0.09861429 0.76700002 6825219
-0.20380287 -0.09861429 0.76700002 6168837
-0.2023419 -0.09861429 0.76700002 5576963
-0.22104001 -0.14328001 0.75600004 11613474
-0.21960001 -0.14328001 0.75600004 12269860
-0.21816 -0.14328001 0.75600004 12533285
-0.21729334 -0.14365906 0.75800002 12860193
-0.21584952 -0.14365906 0.75800002 12859677
-0.21497144 -0.1440381 0.76000005 12859932
-0.2129619 -0.14365906 0.75800002 12729372
-0.21151811 -0.14365906 0.75800002 12598815
-0.21062858 -0.1440381 0.76000005 12402722
-0.20918097 -0.1440381 0.76000005 12205348
-0.20800668 -0.14422762 0.76100004 11615015
-0.20655715 -0.14422762 0.76100004 11025710
-0.20964667 -0.097153336 0.76700002 5384961
-0.20818572 -0.097153336 0.76700002 5188609
-0.20672476 -0.097153336 0.76700002 4857857
-0.20526381 -0.097153336 0.76700002 4527365
-0.20406857 -0.097279996 0.76800001 4002569
0.18376668 -0.090109527 0.74500006 5118472
0.18568286 -0.090351433 0.74700004 5906952
0.18660477 -0.090109527 0.74500006 6694405
-0.23095717 -0.099814296 0.76500005 3943972
-0.22950001 -0.099814296 0.76500005 4401692
-0.22744666 -0.099553332 0.76300001 4793364
-0.22540095 -0.099292383 0.76100004 5316876
-0.22395144 -0.099292383 0.76100004 5840393
-0.22250192 -0.099292383 0.76100004 6497030
-0.22163333 -0.099553332 0.76300001 7085318
-0.21960287 -0.099292383 0.76100004 7480326
-0.21815334 -0.099292383 0.76100004 7805444
-0.21670382 -0.099292383 0.76100004 8067587
-0.21525429 -0.099292383 0.76100004 8329731
-0.21436667 -0.099553332 0.76300001 8464132
-0.21235524 -0.099292383 0.76100004 8593155
-0.21090572 -0.099292383 0.76100004 8594179
-0.20945621 -0.099292383 0.76100004 8658179
-0.20855333 -0.099553332 0.76300001 8528387
-0.2071 -0.099553332 0.76300001 8396290
-0.20618573 -0.099814296 0.76500005 8137217
-0.20472857 -0.099814296 0.76500005 7874561
-0.20380287 -0.10007524 0.76700002 7350273
-0.2023419 -0.10007524 0.76700002 6891521
-0.20088096 -0.10007524 0.76700002 6105601
0.18852858 -0.090351433 0.74700004 6695426
0.18944287 -0.090109527 0.74500006 6760962
0.19086191 -0.090109527 0.74500006 6892035
0.19176477 -0.089867629 0.74300003 7023364
0.19370002 -0.090109527 0.74500006 6958085
0.19511905 -0.090109527 0.74500006 6957834
0.19601049 -0.089867629 0.74300003 6629904
0.19742572 -0.089867629 0.74300003 6300681
0.19884096 -0.089867629 0.74300003 5378562
0.19998667 -0.089746676 0.74200004 4533263
0.20140001 -0.089746676 0.74200004 4268572
0.20281334 -0.089746676 0.74200004 4076075
0.19086191 -0.088690482 0.74500006 4074755
0.19228096 -0.088690482 0.74500006 4402949
0.19370002 -0.088690482 0.74500006 4466439
0.19511905 -0.088690482 0.74500006 4595473
0.19574668 -0.088333338 0.74200004 4595228
0.19742572 -0.088452376 0.74300003 4595215
0.19857335 -0.088333338 0.74200004 4399874
0.18023238 -0.091897145 0.74800003 3871747
0.18165715 -0.091897145 0.74800003 4659458
0.18283714 -0.091774292 0.74700004 5446146
0.18426001 -0.091774292 0.74700004 6232577
0.17833143 -0.093820952 0.75200003 3872516
0.17976382 -0.093820952 0.75200003 5511428
0.18023238 -0.093321912 0.74800003 6102019
0.18165715 -0.093321912 0.74800003 6691331
0.18283714 -0.093197145 0.74700004 7019267
0.18426001 -0.093197145 0.74700004 7411970
0.17472859 -0.095633343 0.75500005 1838600
0.17616667 -0.095633343 0.75500005 2887683
0.17713429 -0.095380001 0.75300002 4002306
0.17833143 -0.095253341 0.75200003 4921090
0.17880762 -0.094746664 0.74800003 5904387
0.17999144 -0.094620004 0.74700004 6494212
0.18092859 -0.09436667 0.74500006 7018500
0.18234763 -0.09436667 0.74500006 7411716
0.18327335 -0.094113335 0.74300003 7804931
0.18444002 -0.093986668 0.74200004 7872515
0.18585335 -0.093986668 0.74200004 8002564
0.18726666 -0.093986668 0.74200004 8461317
0.17458381 -0.10884096 0.76700002 657675
0.17604476 -0.10884096 0.76700002 1443592
0.17313334 -0.10529334 0.74200004 5647874
0.18510191 -0.13583523 0.73900002 10500888
0.18600477 -0.13546763 0.73700005 11418633
0.18740858 -0.13546763 0.73700005 12336645
0.18855619 -0.13528381 0.73600006 12534017
0.18995811 -0.13528381 0.73600006 12797185
0.19136001 -0.13528381 0.73600006 12993025
0.19302383 -0.13546763 0.73700005 13188865
0.19495524 -0.13583523 0.73900002 13125633
0.19636285 -0.13583523 0.73900002 13061124
0.1980381 -0.13601905 0.74000001 12798727
0.19944762 -0.13601905 0.74000001 12536333
0.20085715 -0.13601905 0.74000001 11947539
0.20199333 -0.13583523 0.73900002 11358758
0.20340095 -0.13583523 0.73900002 10045242
0.20480858 -0.13583523 0.73900002 8735811
0.2062162 -0.13583523 0.73900002 7687500
0.17407618 -0.10500953 0.74000001 9119233
0.17548572 -0.10500953 0.74000001 9314049
0.17689525 -0.10500953 0.74000001 9510913
0.17830476 -0.10500953 0.74000001 9971713
0.17971428 -0.10500953 0.74000001 10365441
0.18087906 -0.10486761 0.73900002 10693633
0.18179335 -0.10458381 0.73700005 11086849
0.18319716 -0.10458381 0.73700005 11348993
0.18435049 -0.10444191 0.73600006 11676673
0.18575239 -0.10444191 0.73600006 11939074
0.18664572 -0.1041581 0.73400003 12267267
0.18804382 -0.1041581 0.73400003 12464133
0.1894419 -0.1041581 0.73400003 12726531
0.19032001 -0.1038743 0.73200005 12923906
0.1917143 -0.1038743 0.73200005 13187074
0.19310857 -0.1038743 0.73200005 13383939
0.19450286 -0.1038743 0.73200005 13515523
0.19589716 -0.1038743 0.73200005 13449475
0.19729145 -0.1038743 0.73200005 13449219
0.19868572 -0.1038743 0.73200005 13383427
0.20062667 -0.1041581 0.73400003 13317890
0.20202477 -0.1041581 0.73400003 13121281
0.20342286 -0.1041581 0.73400003 12990465
0.20537905 -0.10444191 0.73600006 12794369
0.20706192 -0.10458381 0.73700005 12533249
0.17266667 -0.11205714 0.74000001 4726785
0.17407618 -0.11205714 0.74000001 9381121
0.17524858 -0.11190572 0.73900002 10171138
0.17689525 -0.11205714 0.74000001 10956289
0.17806382 -0.11190572 0.73900002 10956545
0.17947143 -0.11190572 0.73900002 11022338
0.18014477 -0.11145144 0.73600006 11677954
0.18154669 -0.11145144 0.73600006 12333058
0.18245143 -0.11114857 0.73400003 12596994
0.18384953 -0.11114857 0.73400003 12927492
0.18524763 -0.11114857 0.73400003 13192454
0.18613715 -0.11084572 0.73200005 13519890
0.18753144 -0.11084572 0.73200005 13650973
0.18866761 -0.11069429 0.73100001 13784610
0.19006 -0.11069429 0.73100001 14573863
0.19145238 -0.11069429 0.73100001 15423781
0.19284476 -0.11069429 0.73100001 15487523
0.19423714 -0.11069429 0.73100001 15619355
0.19589716 -0.11084572 0.73200005 15554836
0.19729145 -0.11084572 0.73200005 15488268
0.19868572 -0.11084572 0.73200005 15356165
0.20008001 -0.11084572 0.73200005 15224580
0.20147431 -0.11084572 0.73200005 14568963
0.20286858 -0.11084572 0.73200005 13979139
0.20482096 -0.11114857 0.73400003 13848323
0.20621906 -0.11114857 0.73400003 13715202
0.20761715 -0.11114857 0.73400003 13450241
0.20958479 -0.11145144 0.73600006 13188097
0.21098667 -0.11145144 0.73600006 12663809
0.21238859 -0.11145144 0.73600006 12141070
0.21408097 -0.11160287 0.73700005 10830876
0.21548478 -0.11160287 0.73700005 9586995
0.20846573 -0.10458381 0.73700005 12073985
0.20986955 -0.10458381 0.73700005 11614725
0.21127336 -0.10458381 0.73700005 10960137
0.21267717 -0.10458381 0.73700005 10305574
0.21408097 -0.10458381 0.73700005 7947331
0.17313334 -0.10670667 0.74200004 5189121
-0.23958096 -0.11219049 0.76000005 5062201
-0.23813336 -0.11219049 0.76000005 4994089
-0.23606287 -0.11189524 0.75800002 6369562
-0.23461905 -0.11189524 0.75800002 7808784
-0.23317523 -0.11189524 0.75800002 8594694
-0.23112001 -0.1116 0.75600004 9381123
-0.22968002 -0.1116 0.75600004 10036993
-0.22793812 -0.11145239 0.75500005 10758401
0.17195144 -0.12383334 0.74300003 393485
0.17313334 -0.12366667 0.74200004 4858120
0.17454667 -0.12366667 0.74200004 9318405
0.17548572 -0.12333333 0.74000001 10105346
0.17665619 -0.12316667 0.73900002 10890497
0.17806382 -0.12316667 0.73900002 11480065
0.17898573 -0.12283334 0.73700005 12136705
0.18038954 -0.12283334 0.73700005 12333313
0.18154669 -0.12266668 0.73600006 12529665
0.18245143 -0.12233334 0.73400003 12793601
0.18384953 -0.12233334 0.73400003 13056001
0.18474287 -0.122 0.73200005 13716993
0.18613715 -0.122 0.73200005 14438149
0.18727525 -0.12183333 0.73100001 14438666
0.18866761 -0.12183333 0.73100001 14504204
0.19006 -0.12183333 0.73100001 15159566
0.19145238 -0.12183333 0.73100001 15882777
0.19231716 -0.1215 0.72900003 15885093
0.19370572 -0.1215 0.72900003 15947796
0.19562952 -0.12183333 0.73100001 15814148
0.1970219 -0.12183333 0.73100001 15683590
0.1984143 -0.12183333 0.73100001 15487753
0.20008001 -0.122 0.73200005 15291141
0.20119905 -0.12183333 0.73100001 14963457
0.20286858 -0.122 0.73200005 14700545
0.20426287 -0.122 0.73200005 14501121
0.20621906 -0.12233334 0.73400003 14302721
0.20761715 -0.12233334 0.73400003 13842177
0.20901524 -0.12233334 0.73400003 13384193
0.21041334 -0.12233334 0.73400003 12926465
0.21238859 -0.12266668 0.73600006 12466718
0.21379049 -0.12266668 0.73600006 9451323
0.21636191 -0.12333333 0.74000001 6436674
0.21777143 -0.12333333 0.74000001 5322570
-0.2265 -0.11145239 0.75500005 11021313
-0.22446573 -0.11115715 0.75300002 11349249
-0.22303145 -0.11115715 0.75300002 11743489
-0.23688 -0.11880001 0.75600004 7418140
-0.2351286 -0.11864287 0.75500005 8399373
-0.23369049 -0.11864287 0.75500005 9381129
-0.2322524 -0.11864287 0.75500005 10167813
-0.23081429 -0.11864287 0.75500005 10954755
-0.22876857 -0.11832857 0.75300002 11480321
-0.22733429 -0.11832857 0.75300002 12004865
-0.2256 -0.11817143 0.75200003 12268033
-0.22416763 -0.11817143 0.75200003 12596738
-0.22273524 -0.11817143 0.75200003 13122051
-0.22130287 -0.11817143 0.75200003 13646850
-0.21987049 -0.11817143 0.75200003 14045186
-0.2184381 -0.11817143 0.75200003 14441992
-0.21700571 -0.11817143 0.75200003 14440718
-0.21557334 -0.11817143 0.75200003 14504973
-0.21414095 -0.11817143 0.75200003 14571277
-0.21214287 -0.11785715 0.75000006 14637579
-0.2107143 -0.11785715 0.75000006 14506506
-0.20984381 -0.11817143 0.75200003 14440969
-0.20841144 -0.11817143 0.75200003 14309897
-0.20697905 -0.11817143 0.75200003 14113541
-0.20582001 -0.11832857 0.75300002 13981185
-0.20438573 -0.11832857 0.75300002 13848833
-0.20295143 -0.11832857 0.75300002 13455106
-0.20151715 -0.11832857 0.75300002 13061641
-0.20008285 -0.11832857 0.75300002 13062672
-0.19917619 -0.11864287 0.75500005 13063689
-0.19773811 -0.11864287 0.75500005 10697986
-0.19656001 -0.11880001 0.75600004 8391681
-0.19512001 -0.11880001 0.75600004 4260097
-0.19368002 -0.11880001 0.75600004 131337
-0.19224 -0.11880001 0.75600004 460817
-0.22159714 -0.11115715 0.75300002 12136450
-0.22016285 -0.11115715 0.75300002 12398338
-0.21872857 -0.11115715 0.75300002 12726530
-0.21729429 -0.11115715 0.75300002 12923906
-0.21585999 -0.11115715 0.75300002 13186306
-0.21442571 -0.11115715 0.75300002 13186817
-0.21299143 -0.11115715 0.75300002 13252610
-0.21155715 -0.11115715 0.75300002 13121794
-0.21012287 -0.11115715 0.75300002 12990978
-0.20868857 -0.11115715 0.75300002 12926978
-0.20725429 -0.11115715 0.75300002 12861442
-0.20582001 -0.11115715 0.75300002 12730626
-0.20438573 -0.11115715 0.75300002 12599298
-0.20295143 -0.11115715 0.75300002 12402691
-0.2020524 -0.11145239 0.75500005 12270850
-0.20088001 -0.1116 0.75600004 12139009
-0.19944002 -0.1116 0.75600004 12073736
-0.19904763 -0.11219049 0.76000005 11025424
-0.19786 -0.1123381 0.76100004 10036488
-0.23369049 -0.13302381 0.75500005 9057821
-0.2322524 -0.13302381 0.75500005 10171400
-0.23081429 -0.13302381 0.75500005 11219460
-0.2293762 -0.13302381 0.75500005 11874561
-0.22793812 -0.13302381 0.75500005 12465665
-0.2265 -0.13302381 0.75500005 12793601
-0.22446573 -0.13267143 0.75300002 13121537
-0.22303145 -0.13267143 0.75300002 13580801
-0.22159714 -0.13267143 0.75300002 14039809
-0.22016285 -0.13267143 0.75300002 14236161
-0.21872857 -0.13267143 0.75300002 14499329
-0.21729429 -0.13267143 0.75300002 14565377
-0.21557334 -0.13249524 0.75200003 14631681
-0.21414095 -0.13249524 0.75200003 14566401
-0.21299143 -0.13267143 0.75300002 14566657
-0.21155715 -0.13267143 0.75300002 14500865
-0.21012287 -0.13267143 0.75300002 14435329
-0.20868857 -0.13267143 0.75300002 14237441
-0.20725429 -0.13267143 0.75300002 14040833
-0.20636667 -0.13302381 0.75500005 13844225
-0.20492859 -0.13302381 0.75500005 13582081
-0.20349048 -0.13302381 0.75500005 13450497
-0.20232001 -0.1332 0.75600004 13253633
-0.20141144 -0.13355237 0.75800002 12663809
-0.19996762 -0.13355237 0.75800002 12008196
-0.19904763 -0.13390477 0.76000005 11221767
-0.19786 -0.13408096 0.76100004 10373140
-0.19641048 -0.13408096 0.76100004 6690594
-0.19641048 -0.1123381 0.76100004 5177601
-0.19547334 -0.11263333 0.76300001 393474
-0.19402 -0.11263333 0.76300001 985603
-0.19256668 -0.11263333 0.76300001 1640718
0.17407618 -0.10641904 0.74000001 9381633
0.17548572 -0.10641904 0.74000001 9642241
0.17689525 -0.10641904 0.74000001 9904385
0.17830476 -0.10641904 0.74000001 10299905
0.17947143 -0.10627524 0.73900002 10692865
0.18087906 -0.10627524 0.73900002 11021569
0.18179335 -0.10598763 0.73700005 11414529
0.18294857 -0.10584382 0.73600006 11677441
0.18435049 -0.10584382 0.73600006 11939329
0.18524763 -0.1055562 0.73400003 12202242
0.18664572 -0.1055562 0.73400003 12529412
0.18804382 -0.1055562 0.73400003 12727301
0.1894419 -0.1055562 0.73400003 12989189
-0.23750667 -0.12922096 0.75800002 7486761
-0.23544002 -0.12888001 0.75600004 8664087
-0.23369049 -0.12870952 0.75500005 9907212
-0.2322524 -0.12870952 0.75500005 10758658
-0.23081429 -0.12870952 0.75500005 11611649
-0.2293762 -0.12870952 0.75500005 12070657
-0.22733429 -0.12836857 0.75300002 12595201
-0.22590001 -0.12836857 0.75300002 13054465
-0.22446573 -0.12836857 0.75300002 13514497
-0.22273524 -0.1281981 0.75200003 13646082
-0.2207143 -0.12785715 0.75000006 13841154
-0.21987049 -0.1281981 0.75200003 14570497
-0.2184381 -0.1281981 0.75200003 15292419
-0.21700571 -0.1281981 0.75200003 15162374
-0.21557334 -0.1281981 0.75200003 15095557
-0.21414095 -0.1281981 0.75200003 15028740
-0.21270858 -0.1281981 0.75200003 15028998
-0.2112762 -0.1281981 0.75200003 14963975
-0.20984381 -0.1281981 0.75200003 14964230
-0.20841144 -0.1281981 0.75200003 14637061
-0.20697905 -0.1281981 0.75200003 14373635
-0.20554666 -0.1281981 0.75200003 14110466
-0.20438573 -0.12836857 0.75300002 13911809
-0.20295143 -0.12836857 0.75300002 13516801
-0.20151715 -0.12836857 0.75300002 13188865
-0.2006143 -0.12870952 0.75500005 12989441
-0.19917619 -0.12870952 0.75500005 12793092
-0.19800001 -0.12888001 0.75600004 10827272
-0.19656001 -0.12888001 0.75600004 8921092
-0.19563618 -0.12922096 0.75800002 4522241
-0.19419238 -0.12922096 0.75800002 131332
-0.23688 -0.12168001 0.75600004 7941405
-0.23544002 -0.12168001 0.75600004 8858380
-0.23369049 -0.12151905 0.75500005 9774854
-0.2322524 -0.12151905 0.75500005 10627585
-0.23081429 -0.12151905 0.75500005 11414017
-0.22876857 -0.12119714 0.75300002 11742465
-0.22733429 -0.12119714 0.75300002 12070658
-0.2256 -0.12103619 0.75200003 12529667
-0.22416763 -0.12103619 0.75200003 12988931
-0.22273524 -0.12103619 0.75200003 13450243
-0.22130287 -0.12103619 0.75200003 13909766
-0.21987049 -0.12103619 0.75200003 14573066
-0.2184381 -0.12103619 0.75200003 15230486
-0.21700571 -0.12103619 0.75200003 15163426
-0.21557334 -0.12103619 0.75200003 15097376
-0.21414095 -0.12103619 0.75200003 15097375
-0.21214287 -0.12071429 0.75000006 15031838
-0.2107143 -0.12071429 0.75000006 14966813
-0.20984381 -0.12103619 0.75200003 14967323
-0.20841144 -0.12103619 0.75200003 14836762
-0.20697905 -0.12103619 0.75200003 14771985
-0.20554666 -0.12103619 0.75200003 14507785
-0.20438573 -0.12119714 0.75300002 14179591
-0.20295143 -0.12119714 0.75300002 13850117
-0.20151715 -0.12119714 0.75300002 13456914
-0.20008285 -0.12119714 0.75300002 13326368
-0.19864857 -0.12119714 0.75300002 13196049
-0.19721429 -0.12119714 0.75300002 10566403
-0.19630001 -0.12151905 0.75500005 7864578
-0.19486192 -0.12151905 0.75500005 4129025
-0.19342382 -0.12151905 0.75500005 393733
-0.19198573 -0.12151905 0.75500005 918793
-0.19054763 -0.12151905 0.75500005 1509394
0.19032001 -0.10526858 0.73200005 13188614
0.1917143 -0.10526858 0.73200005 13450502
0.19310857 -0.10526858 0.73200005 13648647
0.19450286 -0.10526858 0.73200005 13844999
0.19589716 -0.10526858 0.73200005 13779207
0.19729145 -0.10526858 0.73200005 13778948
0.19868572 -0.10526858 0.73200005 13647874
0.20062667 -0.1055562 0.73400003 13516546
0.20202477 -0.1055562 0.73400003 13319681
0.20342286 -0.1055562 0.73400003 13188097
0.20537905 -0.10584382 0.73600006 12990977
0.20678097 -0.10584382 0.73600006 12860417
0.20846573 -0.10598763 0.73700005 12205569
-0.23081429 -0.13733812 0.75500005 9714982
-0.2293762 -0.13733812 0.75500005 10957590
-0.22824 -0.13752002 0.75600004 12201740
-0.22680001 -0.13752002 0.75600004 12200962
-0.22506192 -0.13733812 0.75500005 12268801
-0.22362383 -0.13733812 0.75500005 12860161
-0.22218573 -0.13733812 0.75500005 13449729
-0.22074763 -0.13733812 0.75500005 13777409
-0.21930952 -0.13733812 0.75500005 14170625
-0.21787144 -0.13733812 0.75500005 14170881
-0.21643335 -0.13733812 0.75500005 14236673
-0.21499525 -0.13733812 0.75500005 14171137
-0.21384001 -0.13752002 0.75600004 14170881
-0.21240002 -0.13752002 0.75600004 14105345
-0.21096 -0.13752002 0.75600004 14040065
-0.21007429 -0.13788381 0.75800002 13909249
-0.20863049 -0.13788381 0.75800002 13778689
-0.20718667 -0.13788381 0.75800002 13449729
-0.20574285 -0.13788381 0.75800002 13188353
-0.20483811 -0.13824762 0.76000005 12927233
-0.20339048 -0.13824762 0.76000005 12730113
-0.20194286 -0.13824762 0.76000005 12268290
-0.20049526 -0.13824762 0.76000005 11875337
0.20986955 -0.10598763 0.73700005 11614723
0.21127336 -0.10598763 0.73700005 11351813
0.21267717 -0.10598763 0.73700005 11158048
0.21408097 -0.10598763 0.73700005 8667452
0.18868001 -0.093986668 0.74200004 8854532
-0.23471333 -0.10391334 0.76300001 3551270
-0.23326001 -0.10391334 0.76300001 3877914
-0.23180667 -0.10391334 0.76300001 5581070
-0.22974953 -0.10364096 0.76100004 7282184
-0.22830001 -0.10364096 0.76100004 7741955
-0.2265524 -0.10350477 0.76000005 8199426
-0.23895048 -0.11622667 0.75800002 5520426
-0.23688 -0.11592 0.75600004 6500121
-0.23544002 -0.11592 0.75600004 7745033
-0.23400001 -0.11592 0.75600004 8922374
-0.23256001 -0.11592 0.75600004 9774595
-0.23081429 -0.11576667 0.75500005 10561794
-0.2293762 -0.11576667 0.75500005 11021313
-0.22733429 -0.11546 0.75300002 11545857
