# .PCD v0.7 - Point Cloud Data file format
VERSION 0.7
FIELDS x y z
SIZE 4 4 4
TYPE F F F
COUNT 1 1 1
WIDTH 1311
HEIGHT 1
VIEWPOINT 0 0 0 1 0 0 0
POINTS 1311
DATA ascii
-0.026173159 -0.049073681 0.85710138
-0.026347034 -0.04760164 0.85910267
-0.026337042 -0.045971259 0.85908836
-0.026510753 -0.044487789 0.86108923
-0.029459387 -0.033335522 0.89422303
-0.017267056 -0.19011045 0.76661581
-0.017258152 -0.18865722 0.76660305
-0.017249241 -0.18720391 0.7665903
-0.017240331 -0.18575066 0.76657754
-0.017049171 -0.18376575 0.76454628
-0.016949154 -0.18205233 0.76352447
-0.016757973 -0.1800808 0.76149327
-0.016566925 -0.17811677 0.75946218
-0.016467005 -0.17641865 0.75844049
-0.016458198 -0.17498064 0.75842786
-0.016267166 -0.1730338 0.75639689
-0.016258374 -0.17159958 0.75638431
-0.016249582 -0.17016536 0.75637174
-0.01624079 -0.16873114 0.7563591
-0.016232006 -0.16729692 0.75634652
-0.016405314 -0.16635251 0.75835216
-0.016396508 -0.16491449 0.75833958
-0.01647868 -0.16371757 0.75933582
-0.016651794 -0.16275597 0.76134127
-0.016642943 -0.16131224 0.76132858
-0.01681608 -0.16033924 0.76333398
-0.016898155 -0.15912521 0.76433009
-0.017071113 -0.1581389 0.76633531
-0.017062202 -0.15668558 0.76632255
-0.017053299 -0.15523237 0.7663098
-0.017226264 -0.15423085 0.76831478
-0.017399088 -0.15322165 0.77031982
-0.017390132 -0.15176073 0.770307
-0.017381176 -0.15029991 0.77029419
-0.017372221 -0.14883898 0.77028131
-0.017817512 -0.1484597 0.77531254
-0.017808497 -0.14698929 0.77529967
-0.017890297 -0.14573148 0.77629566
-0.017881274 -0.14425914 0.77628273
-0.017781466 -0.14257812 0.77526098
-0.017772458 -0.1411078 0.77524805
-0.017763443 -0.13963738 0.77523518
-0.017572939 -0.13776095 0.77320486
-0.019651264 -0.14091928 0.79639149
-0.01964201 -0.13940898 0.79637825
-0.019632757 -0.13789856 0.79636496
-0.018806994 -0.13462977 0.78727412
-0.018797845 -0.13313657 0.78726101
-0.018788695 -0.13164334 0.7872479
-0.018779546 -0.13015004 0.78723478
-0.018951796 -0.12903233 0.78923887
-0.018942624 -0.12753521 0.7892257
-0.019114703 -0.1264061 0.79122961
-0.019105509 -0.1249052 0.79121643
-0.019186914 -0.12358448 0.79221177
-0.019177705 -0.12208167 0.79219854
-0.01953093 -0.12128417 0.79621923
-0.019521669 -0.11977386 0.79620594
-0.019693531 -0.11860846 0.79820961
-0.019684255 -0.11709423 0.79819632
-0.01985614 -0.11591744 0.80019993
-0.019846842 -0.11439943 0.80018657
-0.019837536 -0.11288142 0.80017328
-0.020099744 -0.11185242 0.80318487
-0.020271488 -0.11065082 0.80518812
-0.020624131 -0.10976005 0.8092081
-0.020795666 -0.10853945 0.81121111
-0.020967141 -0.10731114 0.81321424
-0.020957679 -0.10576844 0.81320071
-0.021129191 -0.10452875 0.81520349
-0.021119714 -0.10298222 0.81518996
-0.021110237 -0.10143562 0.81517637
-0.02110076 -0.09988901 0.81516278
-0.021091282 -0.098342478 0.81514925
-0.021262541 -0.097079992 0.81715202
-0.021343403 -0.095669687 0.81814665
-0.021514699 -0.094393894 0.82014912
-0.021505162 -0.092837781 0.82013547
-0.021676265 -0.091550484 0.82213813
-0.021847337 -0.090255588 0.82414049
-0.021837756 -0.08869189 0.82412672
-0.022008866 -0.087385595 0.82612914
-0.021999255 -0.085818067 0.82611537
-0.022170186 -0.084500283 0.82811761
-0.022521675 -0.083420917 0.83213592
-0.022692502 -0.082084119 0.83413786
-0.022682801 -0.080501407 0.83412397
-0.022853628 -0.079153121 0.83612609
-0.023024336 -0.077797338 0.83812791
-0.022834182 -0.075979993 0.83609825
-0.022824459 -0.074393392 0.83608437
-0.022814736 -0.07280685 0.83607042
-0.022985347 -0.071435764 0.83807206
-0.022975594 -0.069845378 0.83805811
-0.022965848 -0.068255007 0.83804417
-0.023496971 -0.06727685 0.84407711
-0.023487151 -0.065675035 0.84406304
-0.023477338 -0.06407322 0.84404898
-0.023467526 -0.06247142 0.84403491
-0.024088487 -0.061530545 0.85107505
-0.024258718 -0.060100436 0.85307634
-0.024248794 -0.05848147 0.85306215
-0.024418965 -0.057039931 0.85506338
-0.024589196 -0.055590779 0.85706437
-0.024579227 -0.053964198 0.85705006
-0.024569258 -0.052337617 0.85703582
-0.024559289 -0.050711051 0.85702157
-0.024729289 -0.049242839 0.85902262
-0.024719298 -0.047612444 0.85900831
-0.024709307 -0.045982063 0.85899401
-0.024879225 -0.044498608 0.8609947
-0.024869211 -0.042864412 0.86098033
-0.025039151 -0.041369542 0.86298108
-0.025029115 -0.039731547 0.86296672
-0.025019072 -0.038093537 0.86295235
-0.025458597 -0.036775261 0.86797547
-0.025628284 -0.035251826 0.86997575
-0.02695623 -0.032822669 0.88505816
-0.027574971 -0.031537056 0.89209533
-0.027384922 -0.029734969 0.89006561
-0.027105004 -0.027887985 0.88702875
-0.026735425 -0.026001796 0.88298458
-0.026545443 -0.024228275 0.8809551
-0.026265837 -0.022415578 0.87791854
-0.015816212 -0.19012007 0.76653171
-0.015807308 -0.18866685 0.76651895
-0.015798405 -0.18721354 0.7665062
-0.015789494 -0.1857603 0.76649344
-0.015602127 -0.18377537 0.76446241
-0.015504003 -0.18206191 0.76344073
-0.015138194 -0.17956623 0.75939149
-0.015040159 -0.17786619 0.75836992
-0.014852971 -0.17591164 0.75633907
-0.014844179 -0.17447752 0.7563265
-0.014835395 -0.17304331 0.75631392
-0.014826603 -0.17160909 0.75630134
-0.014728576 -0.16992424 0.75527966
-0.014809027 -0.16874065 0.75627613
-0.014711022 -0.1670597 0.75525457
-0.014791444 -0.1658722 0.75625098
-0.014782652 -0.16443807 0.7562384
-0.014952034 -0.163486 0.75824374
-0.014943212 -0.16204797 0.75823116
-0.014934406 -0.16060995 0.75821853
-0.015192747 -0.15987808 0.76123238
-0.015362054 -0.1589013 0.76323754
-0.015175045 -0.15699063 0.76120704
-0.015344314 -0.15600625 0.76321214
-0.01542446 -0.15478647 0.76420808
-0.015593559 -0.15378878 0.76621294
-0.015762612 -0.15278339 0.76821774
-0.015753679 -0.15132637 0.76820493
-0.015744746 -0.14986926 0.76819217
-0.01573582 -0.14841224 0.76817936
-0.015726887 -0.1469551 0.7681666
-0.015895903 -0.14592692 0.77017123
-0.015886948 -0.14446601 0.77015841
-0.015877992 -0.14300519 0.77014554
-0.015869036 -0.14154428 0.77013278
-0.015860081 -0.14008345 0.77011991
-0.015939996 -0.13882746 0.77111572
-0.016108729 -0.13777067 0.77311999
-0.015922062 -0.13590191 0.77109003
-0.015913099 -0.13443919 0.77107722
-0.016960911 -0.13385819 0.78315365
-0.016951807 -0.13237259 0.7831406
-0.017120346 -0.1312701 0.78514469
-0.017111227 -0.12978059 0.78513163
-0.01727961 -0.1286667 0.7871353
-0.017270461 -0.12717348 0.78712219
-0.017438784 -0.12604812 0.78912598
-0.017429605 -0.12455109 0.78911287
-0.017597958 -0.12341432 0.79111648
-0.017588757 -0.12191339 0.7911033
-0.01766824 -0.1205889 0.79209846
-0.017836377 -0.11943492 0.79410195
-0.018004477 -0.11827345 0.79610533
-0.018172622 -0.11710428 0.7981087
-0.018340617 -0.11592752 0.80011207
-0.018154062 -0.11407585 0.79808211
-0.018144786 -0.11256164 0.79806888
-0.018312708 -0.11137345 0.80007213
-0.018303402 -0.10985544 0.80005878
-0.018294096 -0.10833743 0.80004549
-0.018550508 -0.10729127 0.8030566
-0.019072622 -0.1066999 0.80909234
-0.019240305 -0.10547172 0.81109506
-0.019408047 -0.10423586 0.81309789
-0.019398585 -0.10269314 0.81308436
-0.019389138 -0.10115032 0.81307083
-0.019379675 -0.099607602 0.8130573
-0.019370228 -0.098064795 0.81304377
-0.019537732 -0.096806124 0.81504619
-0.019528247 -0.095259503 0.8150326
-0.019695677 -0.093989432 0.81703508
-0.019951597 -0.092848092 0.82004547
-0.01994206 -0.091291979 0.82003182
-0.020109355 -0.090000913 0.82203424
-0.020099789 -0.088440999 0.82202053
-0.020267032 -0.087138534 0.82402253
-0.020257443 -0.085574806 0.82400882
-0.020424709 -0.084260851 0.82601094
-0.02059181 -0.082939386 0.82801294
-0.020758882 -0.081610218 0.83001488
-0.020925894 -0.080273449 0.83201689
-0.020916216 -0.078694537 0.832003
-0.02108328 -0.07734628 0.83400464
-0.02107358 -0.075763568 0.83399075
-0.021063879 -0.074180752 0.83397686
-0.021054178 -0.07259801 0.83396298
-0.021221004 -0.071230784 0.83596474
-0.021211281 -0.069644198 0.83595079
-0.021201551 -0.068057626 0.8359369
-0.021897785 -0.06728746 0.84398443
-0.021887966 -0.065685645 0.84397036
-0.021878153 -0.06408383 0.84395635
-0.021868333 -0.062482029 0.84394228
-0.021858513 -0.060880199 0.84392822
-0.022201493 -0.059648514 0.84794462
-0.022456124 -0.058310941 0.85095322
-0.022622518 -0.056873247 0.85295427
-0.022788972 -0.055427924 0.85495526
-0.022955284 -0.053974971 0.85695601
-0.022945315 -0.05234839 0.8569417
-0.022935346 -0.050721824 0.85692745
-0.022925377 -0.049095243 0.85691315
-0.023091555 -0.047623247 0.85891402
-0.023081563 -0.045992866 0.85889971
-0.023071572 -0.044362485 0.85888541
-0.023061581 -0.04273209 0.8588711
-0.023227766 -0.04124105 0.86087149
-0.023217753 -0.039606854 0.86085713
-0.023383744 -0.038104385 0.86285758
-0.023813799 -0.036786184 0.86788011
-0.023803696 -0.035138667 0.86786568
-0.024321444 -0.033852041 0.87389517
-0.024487317 -0.032309577 0.87589514
-0.024477124 -0.030646801 0.87588054
-0.024466932 -0.02898404 0.875866
-0.024896376 -0.027583942 0.88088769
-0.024886124 -0.025911659 0.88087302
-0.024612166 -0.024093211 0.87783676
-0.024601951 -0.02242662 0.87782216
-0.014190607 -0.18958274 0.76442945
-0.014356472 -0.18867648 0.76643491
-0.014347568 -0.18722317 0.76642215
-0.014338657 -0.18576993 0.7664094
-0.014155075 -0.18378496 0.76437855
-0.014058754 -0.18207151 0.76335698
-0.013700634 -0.17957577 0.75930822
-0.013604499 -0.17787573 0.75828671
-0.013421111 -0.17592114 0.7562561
-0.013412319 -0.17448702 0.75624353
-0.013316259 -0.1727984 0.75522196
-0.013307482 -0.17136607 0.75520939
-0.013298705 -0.16993374 0.75519681
-0.013289928 -0.16850141 0.75518429
-0.013281152 -0.1670692 0.75517172
-0.013097845 -0.16514701 0.75314158
-0.013089091 -0.16371849 0.75312907
-0.013254814 -0.16277224 0.75513399
-0.013333216 -0.16157915 0.75613028
-0.013324425 -0.16014491 0.7561177
-0.013489932 -0.15918157 0.75812268
-0.013481118 -0.15774344 0.75811011
-0.013472304 -0.15630552 0.75809747
-0.013550617 -0.15509713 0.7590934
-0.013715997 -0.15411277 0.76109821
-0.013707146 -0.15266904 0.76108551
-0.01387246 -0.15167318 0.76309025
-0.0141249 -0.15089186 0.76610339
-0.014115997 -0.14943865 0.76609063
-0.014107093 -0.14798532 0.76607788
-0.014098182 -0.14653212 0.76606512
-0.014263324 -0.14550775 0.76806951
-0.014428414 -0.1444757 0.77007389
-0.014245465 -0.14259361 0.76804394
-0.014410511 -0.14155395 0.77004826
-0.014401555 -0.14009313 0.77003539
-0.014392599 -0.13863221 0.77002257
-0.014470607 -0.13737443 0.77101827
-0.014461637 -0.1359116 0.77100539
-0.014452681 -0.13444889 0.77099258
-0.01444371 -0.13298607 0.77097976
-0.015390821 -0.1336726 0.78205931
-0.015381731 -0.13218889 0.78204632
-0.015372634 -0.13070518 0.78203326
-0.015450411 -0.12941118 0.7830286
-0.015615121 -0.12830102 0.78503239
-0.015605994 -0.12681161 0.78501934
-0.015770547 -0.12569006 0.78702271
-0.01576139 -0.12419684 0.78700966
-0.015925869 -0.12306389 0.78901309
-0.01591669 -0.12156688 0.78899997
-0.015907526 -0.12006976 0.78898686
-0.016071901 -0.11892161 0.79099011
-0.016149469 -0.11759333 0.79198515
-0.016140252 -0.11609051 0.79197192
-0.016304538 -0.11492516 0.79397511
-0.016468868 -0.11375231 0.79597819
-0.016633049 -0.11257167 0.79798126
-0.016623765 -0.11105755 0.79796797
-0.016614489 -0.10954332 0.79795468
-0.016778573 -0.10834749 0.79995769
-0.016769268 -0.10682946 0.79994434
-0.017019957 -0.10577765 0.80295509
-0.017183922 -0.10456091 0.80495775
-0.017521203 -0.10363974 0.80897659
-0.017685056 -0.102404 0.81097901
-0.017675623 -0.10086496 0.81096554
-0.017666191 -0.099326059 0.81095201
-0.017656758 -0.097787037 0.81093854
-0.017820477 -0.0965323 0.81294096
-0.017811023 -0.094989479 0.81292742
-0.018147901 -0.093999714 0.81694543
-0.01822494 -0.092585728 0.81793982
-0.018215425 -0.091033414 0.81792617
-0.018378958 -0.089746177 0.81992811
-0.018369421 -0.088190064 0.81991446
-0.018532872 -0.086891413 0.82191658
-0.018523313 -0.0853315 0.82190293
-0.018513754 -0.083771586 0.82188922
-0.018850058 -0.082703725 0.82590652
-0.01901345 -0.081378475 0.82790822
-0.019003816 -0.079807073 0.82789445
-0.019167036 -0.07847032 0.82989615
-0.019330218 -0.077125981 0.8318978
-0.019320548 -0.075547084 0.83188397
-0.019310869 -0.073968068 0.83187008
-0.019473962 -0.072608501 0.83387142
-0.019464262 -0.071025729 0.83385754
-0.019454561 -0.069442958 0.83384365
-0.019444861 -0.067860186 0.83382976
-0.019607827 -0.06648156 0.83583117
-0.019598097 -0.064894989 0.83581728
-0.020106345 -0.063897938 0.84184849
-0.020269156 -0.062492639 0.8438496
-0.020259336 -0.060890809 0.84383553
-0.020422071 -0.059474096 0.84583658
-0.020412222 -0.057868451 0.84582251
-0.02083376 -0.056706488 0.85084563
-0.02099634 -0.055265009 0.85284638
-0.021158874 -0.053815916 0.85484713
-0.021321371 -0.052359179 0.85684758
-0.021138981 -0.050570369 0.8548187
-0.021301433 -0.049106017 0.85681903
-0.021291465 -0.047479451 0.85680479
-0.021453932 -0.04600367 0.85880536
-0.021443941 -0.044373289 0.85879105
-0.021433949 -0.042742893 0.85877681
-0.021596238 -0.041251883 0.8607769
-0.021586217 -0.039617687 0.8607626
-0.021748431 -0.038115248 0.86276281
-0.021738395 -0.036477238 0.86274844
-0.021900535 -0.034963384 0.86474854
-0.022493109 -0.033742711 0.87178469
-0.0226551 -0.032204077 0.87378466
-0.022817038 -0.030657828 0.87578434
-0.02263476 -0.028886154 0.87375551
-0.022624597 -0.027227208 0.87374097
-0.022614427 -0.025568247 0.87372643
-0.022604257 -0.023909301 0.87371188
-0.022766083 -0.022343993 0.87571144
-0.022755891 -0.020681232 0.87569684
-0.012666836 -0.19076642 0.76334941
-0.012743466 -0.18959235 0.76434559
-0.012905538 -0.18868612 0.76635081
-0.012896627 -0.18723279 0.76633805
-0.012716815 -0.18524399 0.76430744
-0.012622483 -0.18352872 0.76328593
-0.012271903 -0.18102524 0.75923753
-0.012177646 -0.17932329 0.75821614
-0.011998028 -0.17736486 0.75618571
-0.011903845 -0.17567241 0.75516421
-0.011895068 -0.17424019 0.75515169
-0.011715539 -0.17229898 0.75312161
-0.011706784 -0.17087045 0.7531091
-0.01169803 -0.16944194 0.75309658
-0.011689276 -0.16801342 0.753084
-0.01150988 -0.16609132 0.75105393
-0.011501148 -0.16466659 0.75104141
-0.011492416 -0.16324188 0.7510289
-0.011483684 -0.16181725 0.75101644
-0.011645496 -0.16087103 0.75302136
-0.011807293 -0.15991709 0.75502598
-0.011883758 -0.1587202 0.75602216
-0.011874974 -0.15728599 0.75600958
-0.012036636 -0.15631504 0.75801426
-0.012027822 -0.15487702 0.75800169
-0.012104236 -0.15366675 0.7589975
-0.012095407 -0.15222682 0.75898486
-0.012086585 -0.15078692 0.75897223
-0.012248106 -0.14979118 0.76097667
-0.012239255 -0.14834747 0.76096404
-0.012400702 -0.14734022 0.76296842
-0.01222156 -0.14545991 0.7609387
-0.012382954 -0.14444509 0.76294303
-0.012459204 -0.1432101 0.76393867
-0.012620524 -0.14218198 0.76594281
-0.012611628 -0.14072876 0.76593006
-0.012772873 -0.13968912 0.76793408
-0.012763947 -0.13823211 0.76792127
-0.01292523 -0.13718107 0.7699253
-0.012916274 -0.13572016 0.76991248
-0.012992352 -0.13445857 0.77090794
-0.012983397 -0.13299577 0.77089512
-0.013399467 -0.13251007 0.77592385
-0.013390452 -0.13103774 0.77591097
-0.013551407 -0.12994862 0.7779144
-0.013882264 -0.12923129 0.78193444
-0.013958126 -0.12793532 0.7829296
-0.013949022 -0.12644969 0.78291661
-0.013939917 -0.12496409 0.78290355
-0.014100656 -0.12384264 0.78490704
-0.014091529 -0.12235314 0.78489399
-0.014082402 -0.12086371 0.78488088
-0.014243066 -0.119727 0.78688395
-0.014403686 -0.11858267 0.78888708
-0.01456435 -0.11743075 0.7908901
-0.014555156 -0.11592981 0.79087692
-0.014630795 -0.11459765 0.79187185
-0.01479125 -0.11342862 0.79387474
-0.014951669 -0.11225191 0.79587758
-0.014942415 -0.11074148 0.79586434
-0.014933154 -0.10923107 0.79585105
-0.015093476 -0.10803914 0.79785383
-0.015084192 -0.10652493 0.79784054
-0.015244439 -0.10532151 0.79984319
-0.015319899 -0.10395704 0.8008377
-0.015480064 -0.10274032 0.80284017
-0.015640184 -0.10151601 0.80484259
-0.015630826 -0.099988475 0.80482918
-0.015621468 -0.098460972 0.80481577
-0.015781477 -0.097221345 0.80681813
-0.015772097 -0.095690027 0.80680466
-0.015932053 -0.094439015 0.80880696
-0.016261384 -0.093456894 0.81282467
-0.016590521 -0.092459574 0.81684208
-0.016581029 -0.090909243 0.81682849
-0.016656138 -0.089491382 0.81782275
-0.016646624 -0.087939069 0.8178091
-0.016637117 -0.086386755 0.81779552
-0.016796783 -0.085088134 0.81979716
-0.016787246 -0.083532035 0.81978351
-0.016946837 -0.082222015 0.82178527
-0.017106391 -0.080904394 0.82378674
-0.016927719 -0.079102188 0.82175791
-0.01725629 -0.078011572 0.82577455
-0.017246678 -0.07644406 0.82576078
-0.017406091 -0.075103447 0.82776219
-0.017565452 -0.073755324 0.82976353
-0.017555803 -0.072180197 0.8297497
-0.017715186 -0.070820644 0.83175105
-0.017705515 -0.069241673 0.83173722
-0.017864741 -0.067870677 0.83373821
-0.017855041 -0.066287905 0.83372432
-0.018014193 -0.064905494 0.83572549
-0.018173307 -0.06351544 0.83772629
-0.018163554 -0.061925054 0.83771235
-0.018322587 -0.060523584 0.83971322
-0.018312819 -0.058929384 0.83969927
-0.018471777 -0.057516485 0.84169996
-0.018461987 -0.055918485 0.84168595
-0.018958263 -0.054841518 0.84771603
-0.019201398 -0.053486913 0.85072386
-0.019191496 -0.051871762 0.85070968
-0.019181594 -0.05025661 0.85069549
-0.019508988 -0.048958346 0.85471058
-0.019667625 -0.047490224 0.85671067
-0.019657657 -0.045863643 0.85669643
-0.019647688 -0.044237062 0.85668218
-0.019637719 -0.042610481 0.85666788
-0.019796222 -0.041123301 0.85866815
-0.019786224 -0.03949292 0.85865384
-0.019944675 -0.037994325 0.8606537
-0.019934662 -0.036360115 0.86063939
-0.020093031 -0.034850091 0.86263931
-0.020840615 -0.033753678 0.8716889
-0.020998903 -0.032215059 0.8736887
-0.020988733 -0.030556098 0.87367409
-0.020810187 -0.028788239 0.87164533
-0.020800039 -0.027133092 0.87163079
-0.020789899 -0.025477931 0.8716163
-0.020948067 -0.023920283 0.87361586
-0.020937905 -0.022261336 0.87360132
-0.021095909 -0.020692259 0.87560064
-0.020917565 -0.018943414 0.87357223
-0.0081374794 -0.19543695 0.72506076
-0.0082127675 -0.19435629 0.72605765
-0.0081206188 -0.19268671 0.72503662
-0.0081121922 -0.19131148 0.72502458
-0.0081874505 -0.19022511 0.72602141
-0.008179009 -0.18884799 0.72600931
-0.010896116 -0.19111422 0.75924265
-0.011221692 -0.19077602 0.76326567
-0.011296421 -0.18960196 0.76426172
-0.01128754 -0.18815252 0.76424903
-0.011445791 -0.18724242 0.76625401
-0.011269778 -0.18525359 0.76422358
-0.011177331 -0.1835383 0.76320219
-0.010834336 -0.18103477 0.7591542
-0.010741986 -0.17933282 0.75813293
-0.01056616 -0.17737436 0.75610274
-0.010306865 -0.17516539 0.75306404
-0.010131143 -0.17322415 0.75103396
-0.010038942 -0.17154498 0.75001276
-0.010030225 -0.17012227 0.75000024
-0.010021508 -0.16869946 0.74998778
-0.010012783 -0.16727673 0.74997532
-0.010004058 -0.1658539 0.74996281
-0.0099953413 -0.1644311 0.74995035
-0.0099866241 -0.16300836 0.74993783
-0.0099779069 -0.16158554 0.74992537
-0.010052562 -0.16040197 0.75092149
-0.01004383 -0.15897736 0.75090897
-0.010368533 -0.15849435 0.75493056
-0.010359749 -0.15706202 0.75491804
-0.010434315 -0.15586127 0.75591397
-0.010425523 -0.15442714 0.7559014
-0.010583356 -0.15344854 0.75790584
-0.010574535 -0.1520105 0.75789326
-0.010565728 -0.15057249 0.75788063
-0.010556906 -0.14913447 0.75786799
-0.010631368 -0.14791662 0.75886369
-0.010622546 -0.14647669 0.75885105
-0.0107802 -0.14546947 0.76085514
-0.010771349 -0.14402577 0.7608425
-0.010928936 -0.14300716 0.76284659
-0.011003286 -0.14177029 0.76384211
-0.010994405 -0.14032088 0.76382935
-0.01115188 -0.13928507 0.76583326
-0.011142977 -0.13783184 0.7658205
-0.011300392 -0.13678464 0.76782423
-0.011291459 -0.13532762 0.76781142
-0.011282533 -0.13387051 0.76779866
-0.011439845 -0.13280809 0.76980233
-0.011430889 -0.13134727 0.76978946
-0.011920542 -0.1310475 0.77582574
-0.011828437 -0.12938353 0.77480459
-0.012068659 -0.12848228 0.77781606
-0.01239188 -0.1277574 0.78183556
-0.012050569 -0.12553005 0.77779013
-0.012373693 -0.12478997 0.78180957
-0.012447633 -0.12348831 0.78280455
-0.012438528 -0.12200268 0.78279155
-0.012429424 -0.12051708 0.7827785
-0.012586303 -0.11938415 0.78478163
-0.012743145 -0.11824366 0.78678447
-0.01289995 -0.11709547 0.78878736
-0.012890771 -0.11559844 0.78877419
-0.013047501 -0.11443885 0.79077697
-0.0130383 -0.11293803 0.7907638
-0.013112023 -0.11160208 0.79175854
-0.013268642 -0.11042538 0.79376113
-0.013259411 -0.10891886 0.79374796
-0.013415962 -0.10773076 0.79575044
-0.013406701 -0.10622035 0.79573721
-0.013563178 -0.10502076 0.79773962
-0.013553903 -0.10350654 0.79772633
-0.013710305 -0.10229564 0.79972875
-0.013700999 -0.10077763 0.79971546
-0.013691694 -0.099259615 0.79970211
-0.013930827 -0.098179281 0.80271196
-0.014087081 -0.096943468 0.80471402
-0.01424329 -0.095700175 0.80671608
-0.01423391 -0.094168767 0.80670261
-0.014390044 -0.09291406 0.80870467
-0.014380634 -0.091378853 0.8086912
-0.014536709 -0.090112656 0.81069297
-0.014858194 -0.089103997 0.8147099
-0.015014142 -0.087818697 0.8167116
-0.01500465 -0.086268291 0.81669801
-0.015077829 -0.084844738 0.8176921
-0.015068322 -0.083292514 0.81767845
-0.015058808 -0.081740201 0.81766486
-0.015214622 -0.08043012 0.81966615
-0.015205085 -0.078874096 0.8196525
-0.015360802 -0.077552602 0.82165402
-0.015351243 -0.075992689 0.82164031
-0.015672132 -0.074886829 0.82565635
-0.01582773 -0.073542565 0.82765746
-0.015818104 -0.071971223 0.82764369
-0.01597362 -0.070615485 0.8296448
-0.016129091 -0.069252133 0.83164585
-0.016119406 -0.067673177 0.83163202
-0.016109735 -0.06609422 0.83161813
-0.016100056 -0.064515248 0.8316043
-0.016255423 -0.063132852 0.83360493
-0.016245723 -0.061550081 0.83359104
-0.016236022 -0.059967309 0.83357716
-0.016391277 -0.058569685 0.83557802
-0.016546503 -0.057164446 0.83757848
-0.016701676 -0.055751562 0.83957905
-0.016856797 -0.054331079 0.8415795
-0.016847 -0.052733064 0.84156549
-0.017002061 -0.051301152 0.84356588
-0.016992241 -0.049699336 0.84355181
-0.017559245 -0.048652157 0.8505879
-0.01787889 -0.047346339 0.85460246
-0.017868944 -0.045723557 0.85458821
-0.018023744 -0.044247836 0.85658807
-0.018013775 -0.042621255 0.85657376
-0.018168487 -0.041134104 0.85857379
-0.018158488 -0.039503723 0.85855949
-0.01831314 -0.038005143 0.86055917
-0.018303119 -0.036370948 0.8605448
-0.018457696 -0.034860939 0.86254454
-0.018859081 -0.033523887 0.86756527
-0.019013539 -0.031992927 0.86956465
-0.019003414 -0.030341595 0.86955017
-0.018828794 -0.028581306 0.86752188
-0.018818691 -0.026933774 0.86750746
-0.018973053 -0.02538757 0.86950672
-0.018962935 -0.023736238 0.86949217
-0.019117221 -0.022178605 0.87149149
-0.019271448 -0.020613372 0.87349081
-0.019261278 -0.018954411 0.87347627
-0.0066597387 -0.20445281 0.72304744
-0.0068151504 -0.20369712 0.72505361
-0.0068067163 -0.20232189 0.72504157
-0.0067982897 -0.20094676 0.72502947
-0.0067898631 -0.19957153 0.72501743
-0.0067814291 -0.19819641 0.72500533
-0.0067730099 -0.19682129 0.72499329
-0.0067645758 -0.19544607 0.72498119
-0.0067561492 -0.19407094 0.72496915
-0.0067477226 -0.19269583 0.72495711
-0.006739296 -0.1913206 0.72494501
-0.006812647 -0.19023424 0.72594172
-0.0067224354 -0.18857025 0.72492087
-0.0067140162 -0.18719512 0.72490883
-0.0097854212 -0.19223313 0.76319462
-0.0097765476 -0.19078562 0.76318192
-0.0098493844 -0.18961155 0.76417786
-0.0098404959 -0.18816212 0.76416516
-0.0098316148 -0.18671261 0.76415241
-0.0098227262 -0.18526319 0.76413971
-0.0097321942 -0.1835479 0.76311845
-0.009396784 -0.18104433 0.75907093
-0.0093063265 -0.17934234 0.75804973
-0.0090526789 -0.1771237 0.75501108
-0.0088806897 -0.17517486 0.75298142
-0.0087087601 -0.1732336 0.75095159
-0.0086184591 -0.17155442 0.74993044
-0.0086097345 -0.1701317 0.74991792
-0.0084379911 -0.16820754 0.74788851
-0.0084293038 -0.16678861 0.74787605
-0.0084206015 -0.16536959 0.74786359
-0.0084119067 -0.16395068 0.74785113
-0.0084032118 -0.16253166 0.74783868
-0.0083945096 -0.16111273 0.74782628
-0.0083858222 -0.1596937 0.74781382
-0.0083771199 -0.15827478 0.74780136
-0.0085312575 -0.15732661 0.74980557
-0.0086039826 -0.15613744 0.75080156
-0.0089210123 -0.1556392 0.75482261
-0.0089122355 -0.15420687 0.75481004
-0.0089034513 -0.15277457 0.75479746
-0.0088946745 -0.15134224 0.75478488
-0.0089672804 -0.15013398 0.7557807
-0.0089584887 -0.14869976 0.75576812
-0.008949697 -0.14726555 0.75575554
-0.0089409128 -0.14583133 0.75574297
-0.0090948045 -0.14482994 0.75774693
-0.0091673434 -0.14360639 0.75874245
-0.0093211532 -0.14259161 0.7607463
-0.0093123093 -0.14114788 0.76073366
-0.0094660521 -0.1401217 0.76273745
-0.0095384717 -0.13888106 0.76373279
-0.0095295906 -0.13743153 0.7637201
-0.009683229 -0.13638826 0.76572365
-0.0098368227 -0.13533728 0.76772714
-0.0096654147 -0.13348173 0.76569819
-0.0098189712 -0.13242313 0.76770157
-0.0099723712 -0.13135695 0.76970494
-0.009963423 -0.12989604 0.76969212
-0.010360427 -0.12939326 0.77471954
-0.010351419 -0.12792295 0.7747066
-0.010423571 -0.1266403 0.77570182
-0.010414541 -0.125168 0.77568895
-0.010567822 -0.12406372 0.77769178
-0.010558769 -0.1225877 0.77767885
-0.010711968 -0.12147191 0.7796818
-0.010702908 -0.11999199 0.77966881
-0.010693833 -0.11851208 0.77965587
-0.010928035 -0.11755557 0.7826665
-0.01108107 -0.1164151 0.78466934
-0.011234075 -0.11526702 0.78667188
-0.011224926 -0.11377381 0.78665876
-0.011377856 -0.11261423 0.78866136
-0.011530742 -0.11144707 0.79066378
-0.011521541 -0.10994624 0.79065061
-0.011512339 -0.10844533 0.79063743
-0.011584044 -0.10710379 0.791632
-0.011736795 -0.10591561 0.79363436
-0.011889502 -0.10471994 0.79563653
-0.012042165 -0.10351658 0.79763871
-0.012032881 -0.10200235 0.79762548
-0.012023605 -0.10048814 0.79761219
-0.012014329 -0.098974019 0.7975989
-0.012166865 -0.097751647 0.79960096
-0.012400277 -0.096665651 0.8026104
-0.012390941 -0.095141932 0.80259705
-0.012381598 -0.09361811 0.80258369
-0.012533993 -0.092371047 0.80458546
-0.012686327 -0.091116279 0.80658716
-0.012676947 -0.089584962 0.80657375
-0.012829222 -0.088318691 0.80857545
-0.012819812 -0.086783573 0.80856198
-0.012972027 -0.085506007 0.81056339
-0.012962595 -0.083967 0.81054991
-0.012953162 -0.082428083 0.81053638
-0.013428271 -0.081627414 0.81656748
-0.013499521 -0.080198169 0.81756145
-0.013490006 -0.07864587 0.8175478
-0.013480492 -0.077093542 0.81753421
-0.013632447 -0.075772181 0.8195352
-0.013784319 -0.074443117 0.82153636
-0.013936177 -0.073106468 0.82353723
-0.013926595 -0.07154274 0.82352352
-0.014078371 -0.070194662 0.82552445
-0.014068767 -0.068627119 0.82551068
-0.014059156 -0.067059577 0.82549691
-0.014210843 -0.065696269 0.82749766
-0.014201209 -0.064124927 0.82748389
-0.014352821 -0.062750176 0.82948458
-0.014343165 -0.061175019 0.82947075
-0.014333516 -0.059599862 0.82945693
-0.014485031 -0.058209866 0.83145756
-0.014636397 -0.056812271 0.83345783
-0.014787823 -0.055407032 0.8354584
-0.015100308 -0.054167926 0.83947283
-0.01509054 -0.052573726 0.83945882
-0.015241824 -0.051145643 0.84145904
-0.015232027 -0.049547642 0.84144497
-0.015383244 -0.048108116 0.84344512
-0.015695401 -0.046815693 0.8474592
-0.015685536 -0.045206249 0.84744507
-0.015675679 -0.043596804 0.847431
-0.016068093 -0.042345509 0.8524518
-0.01621896 -0.040866017 0.8544516
-0.016369894 -0.039378896 0.85645115
-0.016359925 -0.037752315 0.85643685
-0.01651077 -0.03625375 0.85843658
-0.016661577 -0.034747586 0.86043596
-0.016651563 -0.03311339 0.8604216
-0.016802296 -0.031595781 0.86242104
-0.01679226 -0.029957786 0.86240667
-0.016782224 -0.028319776 0.86239231
-0.016772181 -0.026681781 0.86237794
-0.016922802 -0.025145128 0.86437714
-0.017153688 -0.023649633 0.86738324
-0.017304212 -0.022095829 0.8693822
-0.017454684 -0.020534441 0.87138122
-0.017444536 -0.018879294 0.87136674
-0.0052990466 -0.20583323 0.72298014
-0.0054506585 -0.20508134 0.72498614
-0.0054422319 -0.20370622 0.72497404
-0.0055137947 -0.20263696 0.7259708
-0.0055053532 -0.20125985 0.7259587
-0.0054969192 -0.19988282 0.72594661
-0.0054884776 -0.1985057 0.72593457
-0.0054800361 -0.19712867 0.72592247
-0.0056314543 -0.19634441 0.7279281
-0.0054631531 -0.19437453 0.72589827
-0.0054547191 -0.19299752 0.72588623
-0.0054462776 -0.19162038 0.72587413
-0.0054378361 -0.19024336 0.72586203
-0.0053495243 -0.18857935 0.72484136
-0.0053410977 -0.18720424 0.72482926
-0.005412519 -0.18611209 0.72582579
-0.0054040849 -0.18473506 0.72581375
-0.0083402693 -0.19224271 0.76311088
-0.0083314031 -0.1907952 0.76309818
-0.0083225295 -0.18934757 0.76308548
-0.0083934516 -0.18817173 0.7640813
-0.0083845705 -0.18672222 0.7640686
-0.008295916 -0.18500501 0.7630474
-0.0081275478 -0.18302563 0.76101744
-0.0079592168 -0.18105388 0.75898761
-0.0077112168 -0.1788276 0.75594938
-0.0074633658 -0.17661282 0.75291133
-0.0072952062 -0.17466776 0.75088167
-0.0072067901 -0.17298666 0.74986058
-0.0071980655 -0.17156383 0.74984813
-0.0071893483 -0.17014113 0.74983561
-0.0070213005 -0.16821694 0.74780643
-0.0070126057 -0.16679801 0.74779397
-0.0068446472 -0.16488524 0.74576449
-0.0068359748 -0.16347012 0.7457521
-0.0068273023 -0.1620549 0.7457397
-0.0068186298 -0.16063978 0.7457273
-0.0069691241 -0.15970311 0.74773169
-0.0069604218 -0.15828419 0.74771929
-0.0069517344 -0.15686516 0.74770683
-0.0071021542 -0.15591331 0.7497108
-0.0070934296 -0.15449049 0.74969834
-0.0071642399 -0.15329745 0.75069416
-0.0071555078 -0.15187283 0.75068164
-0.0071467757 -0.1504481 0.75066918
-0.0071380436 -0.14902337 0.75065666
-0.0072882771 -0.14804292 0.75266063
-0.0072795153 -0.14661449 0.75264812
-0.0072707683 -0.14518598 0.7526356
-0.0075002611 -0.14440671 0.75564736
-0.0074914694 -0.14297248 0.75563478
-0.0076415241 -0.14196344 0.75763851
-0.0077121258 -0.14073609 0.75863391
-0.0077033043 -0.13929616 0.75862128
-0.0078532547 -0.13827002 0.76062477
-0.0080031604 -0.13723627 0.76262832
-0.0080736652 -0.13599172 0.76362348
-0.0080647841 -0.1345423 0.76361078
-0.0080558956 -0.13309288 0.76359808
-0.0082055777 -0.13203812 0.76560134
-0.0081966668 -0.13058481 0.76558858
-0.0081877559 -0.12913159 0.76557583
-0.0083374456 -0.12806164 0.7675789
-0.0085663646 -0.12717377 0.77058989
-0.00871595 -0.12608662 0.77259284
-0.0088653862 -0.12499186 0.77459574
-0.008856371 -0.12352143 0.77458286
-0.0089265928 -0.1222332 0.7755779
-0.0089175701 -0.12076089 0.77556497
-0.0089085475 -0.11928856 0.77555209
-0.0090579391 -0.11816911 0.77755463
-0.009207271 -0.11704196 0.77955723
-0.0093565658 -0.11590722 0.78155977
-0.0093474686 -0.1144235 0.78154677
-0.0094175339 -0.11310856 0.78254145
-0.0094084293 -0.11162294 0.7825284
-0.0097157508 -0.11079717 0.78654617
-0.0097066015 -0.10930395 0.78653306
-0.0098556727 -0.108133 0.7885353
-0.0098464936 -0.10663588 0.78852218
-0.0099954903 -0.10545355 0.7905243
-0.010223515 -0.10441908 0.79353398
-0.010372408 -0.10321952 0.79553592
-0.010205045 -0.10140584 0.79350752
-0.010353893 -0.10019879 0.7955094
-0.010344639 -0.098688379 0.79549617
-0.010493308 -0.097469836 0.79749799
-0.010484032 -0.09595561 0.7974847
-0.010632731 -0.094725668 0.79948652
-0.010702424 -0.093347833 0.80048054
-0.01085104 -0.092104495 0.80248219
-0.01099962 -0.090853661 0.80448365
-0.010990255 -0.089326039 0.80447024
-0.011138663 -0.088063687 0.80647171
-0.011129275 -0.086532369 0.80645829
-0.011119887 -0.085001066 0.80644482
-0.011268303 -0.083723426 0.80844623
-0.011258893 -0.082188308 0.80843276
-0.011407241 -0.080899268 0.81043386
-0.011397809 -0.079360351 0.81042033
-0.011546075 -0.078059912 0.81242156
-0.011536628 -0.07651709 0.81240803
-0.011684835 -0.075205252 0.81440884
-0.011675358 -0.073658645 0.81439531
-0.012059808 -0.072670251 0.81941783
-0.012207851 -0.071333617 0.82141876
-0.012198284 -0.069773719 0.82140505
-0.012188725 -0.068213806 0.8213914
-0.012179166 -0.066653877 0.82137769
-0.012327105 -0.0652982 0.82337815
-0.012474999 -0.063934907 0.82537872
-0.012465388 -0.06236738 0.82536501
-0.012613118 -0.060992658 0.8273654
-0.012603484 -0.059421301 0.82735163
-0.012751237 -0.058035165 0.82935196
-0.013056278 -0.056822762 0.83336627
-0.013046578 -0.05523999 0.83335239
-0.0133515 -0.054004729 0.83736658
-0.01349894 -0.052584291 0.83936661
-0.013489172 -0.050990105 0.83935261
-0.013479397 -0.049395889 0.83933866
-0.013626844 -0.047960222 0.84133852
-0.013774246 -0.04651691 0.84333837
-0.013921589 -0.045066014 0.84533823
-0.013911746 -0.043460384 0.84532416
-0.013901904 -0.041854754 0.84531009
-0.014049172 -0.040388599 0.84730965
-0.014274821 -0.038982674 0.85031599
-0.014579013 -0.037631243 0.85432923
-0.014569074 -0.036008462 0.85431504
-0.014559127 -0.034385696 0.8543008
-0.014863148 -0.033003792 0.85831368
-0.01485315 -0.031373397 0.85829937
-0.014843158 -0.029743016 0.85828507
-0.014833167 -0.028112635 0.85827076
-0.014979966 -0.026587442 0.86026973
-0.014969952 -0.024953231 0.86025536
-0.015116781 -0.023416609 0.86225444
-0.015106738 -0.021778613 0.86224008
-0.015488692 -0.020365492 0.86725903
-0.015478596 -0.018717974 0.86724454
-0.015625149 -0.017152771 0.86924314
-0.0040861815 -0.20646557 0.7249186
-0.0041558743 -0.20540015 0.72591531
-0.0041474327 -0.20402312 0.72590321
-0.0041389912 -0.20264609 0.72589111
-0.0041305572 -0.20126897 0.72587901
-0.0041221157 -0.19989195 0.72586697
-0.0041136742 -0.19851482 0.72585487
-0.0041052401 -0.1971378 0.72584277
-0.0042528436 -0.19635355 0.72784823
-0.0040883571 -0.19438367 0.72581863
-0.004079923 -0.19300663 0.72580653
-0.0040714741 -0.19162951 0.72579449
-0.0042189956 -0.19083005 0.72779977
-0.0042105317 -0.18944913 0.72778767
-0.0042020679 -0.1880683 0.72777551
-0.004193604 -0.18668739 0.72776341
-0.0041851401 -0.18530647 0.72775131
-0.0040208399 -0.18336707 0.72572196
-0.0068950281 -0.19225231 0.76302713
-0.0068861544 -0.19080479 0.76301444
-0.0068772882 -0.18935716 0.76300174
-0.0068684071 -0.18790966 0.76298904
-0.0068595409 -0.18646213 0.76297635
-0.0068506673 -0.18501461 0.76296365
-0.0066861957 -0.18303519 0.76093394
-0.006443806 -0.18079942 0.75789601
-0.00620161 -0.17857501 0.7548579
-0.0058815554 -0.17610183 0.7508117
-0.0058728307 -0.17467719 0.75079924
-0.0057862997 -0.17299609 0.74977827
-0.0057775751 -0.17157327 0.74976581
-0.0056134015 -0.16964537 0.74773675
-0.0056047067 -0.16822635 0.74772429
-0.0054405183 -0.16630983 0.74569505
-0.0054318383 -0.16489461 0.74568266
-0.0053454414 -0.1632345 0.74466199
-0.0053367838 -0.16182129 0.74464959
-0.0053281188 -0.16040796 0.74463719
-0.0053194612 -0.15899473 0.74462473
-0.0053107962 -0.15758151 0.74461234
-0.0053798035 -0.15640369 0.74560815
-0.0055264384 -0.15545565 0.7476123
-0.0055177435 -0.15403664 0.74759984
-0.0056642145 -0.1530772 0.74960351
-0.0056554973 -0.15165438 0.74959105
-0.0056467801 -0.15023164 0.7495786
-0.0057156608 -0.14903282 0.75057423
-0.0057069287 -0.14760819 0.75056171
-0.005698204 -0.14618349 0.75054926
-0.005689472 -0.14475876 0.75053674
-0.0058358312 -0.14376692 0.75254041
-0.0059821606 -0.14276749 0.75454378
-0.0060508102 -0.14154777 0.75553924
-0.0060420185 -0.14011353 0.75552666
-0.0061882287 -0.13909692 0.75753009
-0.0062569231 -0.1378658 0.75852531
-0.0064030588 -0.13683586 0.76052856
-0.0063942075 -0.13539213 0.76051593
-0.0065401718 -0.1343507 0.76251918
-0.0065312982 -0.13290319 0.76250648
-0.006522432 -0.13145567 0.76249373
-0.0065135509 -0.13000815 0.76248103
-0.0065821111 -0.12875412 0.76347607
-0.00657323 -0.1273047 0.76346338
-0.0070285648 -0.12699366 0.76949751
-0.0070969835 -0.12572065 0.77049243
-0.0072427541 -0.12462971 0.77249515
-0.0072337613 -0.12316319 0.77248228
-0.0073794574 -0.12206076 0.77448487
-0.0074477643 -0.12077063 0.77547979
-0.0074387342 -0.11929832 0.77546692
-0.007429719 -0.1178261 0.77545398
-0.007575199 -0.11670278 0.77745628
-0.0075661466 -0.11522667 0.77744329
-0.0077116415 -0.11409193 0.77944565
-0.0077025741 -0.11261202 0.77943265
-0.0079252422 -0.11163279 0.78244245
-0.0079161376 -0.11014718 0.78242946
-0.007907033 -0.10866156 0.7824164
-0.0080522522 -0.10749823 0.78441864
-0.0080431253 -0.10600881 0.78440553
-0.0083427578 -0.10514878 0.78842247
-0.0084879398 -0.10396266 0.79042429
-0.0085557997 -0.10261536 0.79141861
-0.0087009072 -0.10141583 0.79342037
-0.0086916685 -0.099909306 0.79340714
-0.0086824372 -0.098402694 0.79339397
-0.0088274479 -0.097187966 0.79539555
-0.0088181868 -0.095677555 0.79538226
-0.0088089332 -0.094167233 0.79536903
-0.0089537352 -0.092937216 0.79737055
-0.0089444593 -0.091423005 0.79735726
-0.0091663674 -0.090318069 0.80036592
-0.009311147 -0.089067161 0.80236727
-0.009455882 -0.087808639 0.8043685
-0.0094465166 -0.086281121 0.80435508
-0.0094371587 -0.084753603 0.80434167
-0.0094278008 -0.083226085 0.80432826
-0.0095723122 -0.081948474 0.80632937
-0.009562932 -0.080417171 0.80631596
-0.0098614246 -0.079370543 0.81033134
-0.0098519921 -0.077831537 0.81031781
-0.0098425597 -0.076292619 0.81030434
-0.0099868774 -0.074984491 0.81230521
-0.0099774227 -0.073441774 0.81229168
-0.010121793 -0.072122306 0.81429225
-0.010112315 -0.070575729 0.81427866
-0.010256611 -0.069244832 0.81627929
-0.010247111 -0.06769444 0.8162657
-0.010314465 -0.066248089 0.81725925
-0.010612249 -0.065104306 0.8212738
-0.010602698 -0.063544407 0.82126009
-0.010746792 -0.06218113 0.82326025
-0.010890745 -0.060810223 0.82526052
-0.010881141 -0.059242696 0.82524681
-0.011025116 -0.057860374 0.8272469
-0.011322603 -0.056651846 0.83126098
-0.011312924 -0.055072874 0.83124715
-0.011456668 -0.053667694 0.83324695
-0.01160045 -0.0522549 0.83524698
-0.011744209 -0.050834492 0.83724666
-0.011734456 -0.049244106 0.83723271
-0.011878029 -0.047812268 0.83923244
-0.011868261 -0.046218067 0.83921844
-0.012011871 -0.044774786 0.84121805
-0.012002073 -0.043176785 0.84120399
-0.011992276 -0.041578785 0.84118998
-0.012135789 -0.040120274 0.84318948
-0.01227925 -0.038654149 0.84518903
-0.012269408 -0.037048519 0.84517491
-0.012259573 -0.035442889 0.84516084
-0.012249723 -0.033837274 0.84514678
-0.012622774 -0.032532781 0.85016584
-0.012612864 -0.030917645 0.85015172
-0.012909144 -0.029528156 0.85416418
-0.01289919 -0.02790539 0.85414994
-0.012889251 -0.026282609 0.85413569
-0.013032384 -0.02476126 0.85613447
-0.013175458 -0.023232281 0.85813349
-0.013165466 -0.021601886 0.85811919
-0.013308384 -0.020061478 0.86011779
-0.013298362 -0.018427283 0.86010349
-0.013823681 -0.01708135 0.86713481
-0.013813585 -0.015433818 0.86712033
-0.0027979463 -0.20816344 0.72585976
-0.0027132779 -0.20647469 0.72483909
-0.0027810633 -0.20540929 0.72583562
-0.0027726218 -0.20403224 0.72582352
-0.0027641803 -0.20265523 0.72581148
-0.0027557462 -0.20127811 0.72579938
-0.0027473047 -0.19990107 0.72578728
-0.0027388632 -0.19852395 0.72577518
-0.0027304292 -0.19714692 0.72576314
-0.0028742254 -0.1963627 0.72776836
-0.0027135462 -0.1943928 0.72573894
-0.0028572977 -0.19360095 0.7277441
-0.0028488338 -0.19222003 0.727732
-0.0029164553 -0.19112793 0.72872841
-0.0029079765 -0.18974522 0.72871631
-0.0028234422 -0.18807745 0.72769564
-0.0028149784 -0.18669654 0.72768354
-0.002806522 -0.18531562 0.72767144
-0.002646029 -0.18337619 0.72564232
-0.0026375949 -0.18199918 0.72563022
-0.00544101 -0.19081438 0.76293069
-0.0054321438 -0.18936676 0.762918
-0.0054232627 -0.18791924 0.7629053
-0.0054143965 -0.18647173 0.7628926
-0.0052536875 -0.18448851 0.76086307
-0.0052448437 -0.18304476 0.76085037
-0.0048563182 -0.18028082 0.75579602
-0.0047716349 -0.17858452 0.75477505
-0.0044592172 -0.17611127 0.75072932
-0.0044504851 -0.17468664 0.75071681
-0.0043658912 -0.17300552 0.74969596
-0.0042054206 -0.17107369 0.74766713
-0.0041967332 -0.16965476 0.74765468
-0.004036352 -0.16773432 0.74562562
-0.0040276796 -0.16631922 0.74561322
-0.0039431676 -0.16465709 0.74459261
-0.0039345101 -0.16324386 0.74458021
-0.0037742481 -0.16134444 0.74255151
-0.0037656128 -0.15993501 0.74253917
-0.0037569702 -0.15852559 0.74252677
-0.0037483275 -0.15711606 0.74251443
-0.0037396997 -0.15570664 0.74250203
-0.0038825423 -0.15476432 0.74450582
-0.0039496273 -0.15358272 0.74550146
-0.0039409548 -0.15216759 0.74548906
-0.0040836781 -0.15120809 0.74749285
-0.0040749758 -0.14978915 0.74748039
-0.0042176545 -0.14881825 0.74948376
-0.0042089373 -0.14739543 0.74947131
-0.0042002201 -0.14597271 0.74945879
-0.0041914955 -0.14454989 0.74944633
-0.0042583942 -0.14334357 0.75044179
-0.0044009164 -0.14234796 0.75244522
-0.004392162 -0.14091945 0.7524327
-0.0043834001 -0.13949093 0.75242019
-0.0045258477 -0.13848002 0.7544232
-0.0045170709 -0.13704771 0.75441062
-0.0045838356 -0.13582039 0.75540596
-0.0048017055 -0.13499549 0.75841677
-0.0049440116 -0.13395798 0.76041973
-0.0049351603 -0.13251416 0.76040709
-0.004926309 -0.13107044 0.76039439
-0.0050684065 -0.13001774 0.76239729
-0.0050595403 -0.12857012 0.76238459
-0.0051261783 -0.12731431 0.76337951
-0.0052682757 -0.12624431 0.76538217
-0.0054102242 -0.1251668 0.76738477
-0.0055522323 -0.1240816 0.76938736
-0.0056187361 -0.12280479 0.77038217
-0.0056097731 -0.12134197 0.77036929
-0.0057515725 -0.12023968 0.77237165
-0.0058934242 -0.11912976 0.77437401
-0.005884409 -0.11765936 0.77436113
-0.0059507936 -0.11636354 0.77535588
-0.0059417635 -0.11489122 0.775343
-0.0060834065 -0.11376034 0.77734494
-0.0060743541 -0.1122842 0.77733201
-0.0063667074 -0.11147574 0.78134906
-0.0063576177 -0.10999201 0.78133601
-0.006348528 -0.10850829 0.78132302
-0.0064146519 -0.10718569 0.7823174
-0.0064055473 -0.10570006 0.78230435
-0.0063964427 -0.10421444 0.78229135
-0.006387338 -0.10272883 0.7822783
-0.0066793039 -0.10185745 0.78629476
-0.0069710836 -0.10097088 0.7903111
-0.007037133 -0.099619761 0.7913053
-0.0070279241 -0.098116949 0.79129207
-0.007169053 -0.096906051 0.79329354
-0.0071598217 -0.095399529 0.79328036
-0.0071505904 -0.093892917 0.79326713
-0.0072917342 -0.09266682 0.79526842
-0.0072824806 -0.091156408 0.79525512
-0.0074235499 -0.089918911 0.79725641
-0.0075644627 -0.088673726 0.79925758
-0.0076303184 -0.08728832 0.80025136
-0.0077712536 -0.086029828 0.80225241
-0.0077619106 -0.084506109 0.802239
-0.0077525824 -0.082982391 0.80222565
-0.0078933239 -0.081708699 0.80422652
-0.007883966 -0.080181092 0.80421311
-0.0080247372 -0.078896001 0.80621392
-0.0078652427 -0.077126056 0.80418628
-0.0081559569 -0.076067999 0.80820125
-0.0081465542 -0.074532881 0.80818778
-0.0081371441 -0.072997734 0.80817431
-0.008277759 -0.071685895 0.81017476
-0.0084183291 -0.070366457 0.81217533
-0.0084088743 -0.068823665 0.8121618
-0.0083994195 -0.067280918 0.81214827
-0.0085398108 -0.065946236 0.81414849
-0.0086802244 -0.064603925 0.81614882
-0.0087456703 -0.063153788 0.81714219
-0.0087361559 -0.06160149 0.8171286
-0.0091760606 -0.060627759 0.82315606
-0.0093161911 -0.059253082 0.82515609
-0.0093065798 -0.057685539 0.82514232
-0.0094467476 -0.056299448 0.82714224
-0.0095867664 -0.054905713 0.82914209
-0.0097268224 -0.053504378 0.83114195
-0.0097171366 -0.051925421 0.83112806
-0.0098571479 -0.050512642 0.83312762
-0.0099969953 -0.049092263 0.83512735
-0.01013691 -0.047664255 0.83712673
-0.010127157 -0.046073869 0.83711278
-0.010266989 -0.044634432 0.83911222
-0.010257214 -0.043040231 0.83909827
-0.010247454 -0.04144603 0.83908427
-0.010237679 -0.039851829 0.83907026
-0.010377303 -0.038393378 0.84106952
-0.010516971 -0.036927253 0.84306872
-0.010357715 -0.035197347 0.84104145
-0.010497332 -0.033723623 0.84304065
-0.010636911 -0.032242283 0.84503978
-0.010627076 -0.030636653 0.84502572
-0.010766476 -0.029143885 0.84702456
-0.010980606 -0.02769804 0.85002995
-0.010970704 -0.026082888 0.85001576
-0.011109985 -0.024569169 0.85201454
-0.011100069 -0.022950202 0.85200036
-0.011090145 -0.021331251 0.85198617
-0.011229426 -0.019802302 0.85398489
-0.011219479 -0.018179536 0.85397065
-0.011805981 -0.016886309 0.86200744
-0.011945084 -0.015326872 0.86400574
-0.0015802383 -0.21018058 0.72780961
-0.0015717745 -0.20879968 0.72779751
-0.0014146939 -0.20679551 0.72576803
-0.0015548542 -0.20603792 0.72777325
-0.0015463904 -0.20465709 0.72776115
-0.0013893768 -0.20266435 0.72573179
-0.0013809353 -0.20128722 0.72571969
-0.0013725013 -0.19991019 0.72570765
-0.0013640597 -0.19853307 0.72569555
-0.0015040785 -0.19775268 0.72770059
-0.0014956146 -0.19637185 0.72768843
-0.0014871508 -0.19499093 0.72767633
-0.0015528947 -0.19390264 0.72867268
-0.0014702231 -0.19222918 0.72765213
-0.0016843006 -0.1917147 0.73066533
-0.0015274659 -0.18975437 0.72863626
-0.0015189946 -0.18837154 0.72862417
-0.0015105158 -0.18698882 0.72861207
-0.001502037 -0.185606 0.72859991
-0.0014194474 -0.18394394 0.72757941
-0.0014109835 -0.18256302 0.72756732
-0.0014025196 -0.18118221 0.72755516
-0.0039870143 -0.18937634 0.76283425
-0.0039781407 -0.18792883 0.76282156
-0.0038211346 -0.18594177 0.7607922
-0.0038122833 -0.18449807 0.76077956
-0.0036553741 -0.18252239 0.75875032
-0.0034244657 -0.18029031 0.75571305
-0.0033416599 -0.17859399 0.7546922
-0.003036879 -0.1761207 0.75064689
-0.0029541552 -0.17443767 0.74962616
-0.0027974695 -0.17250212 0.74759746
-0.0027887747 -0.17108309 0.747585
-0.0027800798 -0.16966416 0.7475726
-0.0026234984 -0.16774371 0.74554372
-0.0025409013 -0.16607977 0.74452323
-0.0023843944 -0.16417262 0.7424947
-0.0023757517 -0.16276319 0.7424823
-0.002367124 -0.16135377 0.74246997
-0.0022845864 -0.15970314 0.74144959
-0.0022759587 -0.15829562 0.74143726
-0.0021196231 -0.15641326 0.73940885
-0.0022587031 -0.15548056 0.74141252
-0.0022500753 -0.15407294 0.74140018
-0.0023152903 -0.15289715 0.74239576
-0.0024542883 -0.15194716 0.74439925
-0.0024456307 -0.15053394 0.74438685
-0.0025107563 -0.14934663 0.74538231
-0.0025020838 -0.1479315 0.74536991
-0.0026409328 -0.14696062 0.7473734
-0.0026322454 -0.1455417 0.74736094
-0.0026235431 -0.14412268 0.74734849
-0.0027623177 -0.14313661 0.7493515
-0.0027536005 -0.14171377 0.74933904
-0.0028185993 -0.14050367 0.75033438
-0.0028098673 -0.13907896 0.75032187
-0.0028011352 -0.13765423 0.75030941
-0.0029397458 -0.13664345 0.75231248
-0.0030783266 -0.13562497 0.7543152
-0.0031431913 -0.13439576 0.75531042
-0.0032816827 -0.13336389 0.75731325
-0.0033465028 -0.1321252 0.75830817
-0.0033376813 -0.13068527 0.75829554
-0.0033288598 -0.12924534 0.7582829
-0.0034672096 -0.12819256 0.76028556
-0.0036055446 -0.12713219 0.76228815
-0.0036702305 -0.12587449 0.7632829
-0.0038084686 -0.12480071 0.76528537
-0.0037995577 -0.12334749 0.76527262
-0.0039377362 -0.12226231 0.76727492
-0.0040757954 -0.12116954 0.76927722
-0.0040668473 -0.11970873 0.76926434
-0.0041314214 -0.11842613 0.77025902
-0.0041224509 -0.1169634 0.77024621
-0.004407391 -0.11619878 0.77426314
-0.0043983757 -0.11472835 0.77425027
-0.0044628382 -0.11342865 0.77524489
-0.0044538155 -0.11195634 0.77523196
-0.0047385171 -0.11115171 0.77924848
-0.0048763305 -0.11000185 0.78125018
-0.0048672408 -0.10851811 0.78123719
-0.0048581511 -0.1070344 0.78122413
-0.0048490539 -0.10555068 0.78121114
-0.0048399642 -0.10406686 0.78119814
-0.004904151 -0.10273868 0.78219235
-0.0048950464 -0.10125305 0.78217936
-0.0050326586 -0.10007079 0.78418094
-0.0051701292 -0.098880798 0.78618217
-0.0051609799 -0.097387582 0.78616911
-0.0052984804 -0.096186221 0.7881704
-0.005509153 -0.095121369 0.79117876
-0.0056465417 -0.093902901 0.79317999
-0.0056373179 -0.092396289 0.79316676
-0.0057745352 -0.091166422 0.79516774
-0.0057652742 -0.089655995 0.79515451
-0.0059025288 -0.088414729 0.7971555
-0.0060396343 -0.087165758 0.79915649
-0.0060303286 -0.085647747 0.79914314
-0.0060210228 -0.084129736 0.79912984
-0.0060849413 -0.082738638 0.80012339
-0.0060756281 -0.081218734 0.8001101
-0.0062126815 -0.079945058 0.80211079
-0.0063495934 -0.078663692 0.80411136
-0.00648655 -0.077374727 0.80611187
-0.0064771622 -0.075843409 0.80609846
-0.006467782 -0.074312091 0.80608505
-0.0066045448 -0.073007911 0.8080855
-0.0065951347 -0.071472749 0.80807203
-0.0067319423 -0.070157111 0.81007224
-0.0067225099 -0.068618163 0.81005877
-0.0067130774 -0.067079201 0.81004524
-0.0068496838 -0.065748349 0.81204551
-0.0069863498 -0.064409897 0.81404543
-0.0069768652 -0.062863305 0.8140319
-0.0071133524 -0.061513424 0.81603187
-0.0071768686 -0.060059473 0.81702518
-0.0073132887 -0.058696255 0.81902492
-0.0074497312 -0.057325408 0.82102484
-0.0077320337 -0.056128398 0.8250379
-0.0078683794 -0.054738522 0.82703751
-0.0078587532 -0.053167179 0.82702374
-0.00799492 -0.051765844 0.8290233
-0.0081311464 -0.050356925 0.83102286
-0.0082672313 -0.048940375 0.83302212
-0.0084033608 -0.047516197 0.83502162
