# .PCD v0.7 - Point Cloud Data file format
VERSION 0.7
FIELDS x y z rgba
SIZE 4 4 4 4
TYPE F F F U
COUNT 1 1 1 1
WIDTH 1120
HEIGHT 1
VIEWPOINT 0 0 0 1 0 0 0
POINTS 1120
DATA ascii
0.032452229 -0.23656456 0.71350145 9798776
0.031149793 -0.23584493 0.71529734 9864568
0.031592842 -0.23590828 0.71647203 9733496
0.031165186 -0.2355804 0.71796274 9667960
0.054843634 -0.17927383 0.72813535 9929846
0.053653613 -0.17840132 0.72998661 9799031
0.054106057 -0.17846602 0.73118639 9733239
0.053739265 -0.17806241 0.73271728 9733239
0.053373799 -0.17765893 0.73425174 9733238
0.052191809 -0.17678763 0.7361244 9667701
0.052646965 -0.17685269 0.73733121 9667703
0.052285567 -0.17644987 0.73887634 9667960
0.05192548 -0.17604719 0.74042499 9667706
0.050751537 -0.17517699 0.74231911 9667708
0.051209345 -0.17524247 0.74353307 9733242
0.050853282 -0.17484038 0.74509239 9733240
0.050498605 -0.17443849 0.74665534 9798775
0.050957799 -0.17450413 0.74787271 9799030
0.049793199 -0.17363529 0.7497918 9799031
0.049442559 -0.17323397 0.75136536 9799032
0.048282728 -0.17236581 0.75329679 9799032
0.048745275 -0.17243192 0.75452316 9667960
0.048398554 -0.17203113 0.75610745 9602426
0.04805328 -0.17163062 0.75769532 9603196
0.048517138 -0.17169693 0.75892532 9668459
0.049788147 -0.17222981 0.75979209 7888474
0.05025135 -0.17229603 0.76102018 6118492
0.062397718 -0.14466782 0.74806225 10127993
0.062070876 -0.14422676 0.74963725 10062455
0.062534094 -0.14429297 0.75086534 9997174
0.062209293 -0.14385222 0.75244558 9997433
0.062673151 -0.14391856 0.75367558 10063997
0.063136995 -0.14398487 0.75490558 10195052
0.0620289 -0.14303783 0.75685024 8351836
0.062494114 -0.14310433 0.75808376 6511450
0.10546204 -0.13272163 0.64076757 9929850
0.10507831 -0.1322024 0.64209092 9929850
0.10549791 -0.13226236 0.64320338 9864315
0.1043148 -0.13116442 0.64474827 9798524
0.10393512 -0.13064575 0.64608228 9798522
0.10355675 -0.13012728 0.64741993 9798265
0.10397901 -0.13018763 0.64853954 9798263
0.10280401 -0.12909088 0.65010583 9732982
0.10322762 -0.12915142 0.65122902 9732981
0.10285394 -0.12863362 0.65257907 9798260
0.10248163 -0.128116 0.65393269 9863797
0.072265238 -0.14165379 0.54832101 5457985
0.072678745 -0.14171293 0.5494175 5194300
0.073092267 -0.14177205 0.55051398 4996153
0.074371457 -0.14240317 0.55154157 4601910
0.074784324 -0.14246221 0.55263615 4273970
0.078654274 -0.14480829 0.55344117 4142639
0.082518846 -0.14715363 0.55423188 4011822
0.084652245 -0.14835507 0.55516028 4077612
0.086782858 -0.14955609 0.55608165 4208683
0.088910863 -0.15075678 0.55699587 4143147
0.091036141 -0.15195705 0.55790305 4077611
0.093158782 -0.15315692 0.55880284 4208940
0.094419122 -0.15378536 0.55978084 4339759
0.096537039 -0.15498455 0.56066823 4405043
0.098652288 -0.15618341 0.56154859 4470321
0.10162236 -0.15795265 0.56233168 4470064
0.10458849 -0.15972133 0.56310403 4470068
0.10669425 -0.16091882 0.5639596 4535608
0.10794188 -0.16154541 0.56490338 4601643
0.10918812 -0.16217183 0.56584394 4074783
0.11128724 -0.1633683 0.5666815 3548985
0.11167656 -0.16342394 0.56771386 6717011
0.11291881 -0.16404976 0.56864369 9929528
0.11330748 -0.16410534 0.56967413 5047069
0.11284466 -0.16359092 0.57081103 196937
0.11238317 -0.16307676 0.57195139 8428150
0.11192299 -0.16256279 0.57309544 16702089
0.1114642 -0.16204898 0.57424307 16711324
0.11185557 -0.1621049 0.57528067 16709497
0.11139874 -0.16159135 0.57643366 11986518
0.11094332 -0.16107804 0.57759011 7215961
0.11048922 -0.16056491 0.57875001 8128093
0.1108826 -0.16062114 0.5797931 9144168
0.11127599 -0.16067737 0.58083618 9734515
0.11082454 -0.16016461 0.58200336 10388853
0.1095303 -0.15908314 0.58329988 10192246
0.10908224 -0.15857087 0.58447576 10061174
0.10947832 -0.15862751 0.58552611 9995381
0.10987438 -0.1586841 0.58657622 9995382
0.10942903 -0.15817221 0.58775938 9929847
0.10982575 -0.15822893 0.5888114 9929845
0.10938239 -0.15771735 0.58999979 9930099
0.10894033 -0.15720592 0.59119189 9930099
0.10849963 -0.1566947 0.59238744 9930099
0.10889842 -0.15675168 0.59344476 9995382
0.10845973 -0.15624078 0.59464574 9865081
0.10885915 -0.15629788 0.59570479 9798517
0.10842253 -0.15578723 0.59691107 9732976
0.1088226 -0.15584444 0.59797198 9734260
0.10838796 -0.15533407 0.59918362 9997689
0.10795462 -0.1548239 0.6003989 10257761
0.1075227 -0.15431394 0.60161757 8420682
0.10792479 -0.1543714 0.60268378 6635580
0.10749488 -0.15386172 0.60390776 3605294
0.10789764 -0.15391929 0.60497582 655920
0.10746972 -0.15340991 0.60620522 1769779
0.10704307 -0.15290068 0.60743821 2883902
0.10661787 -0.15239167 0.60867476 2556233
0.10619396 -0.15188286 0.6099149 2228548
0.10577141 -0.15137424 0.61115849 1704256
0.10535021 -0.15086579 0.61240566 1245505
0.1049303 -0.15035754 0.61365652 655682
0.10533778 -0.15041579 0.61473703 65857
0.10409458 -0.14934164 0.6161688 1507647
0.10285406 -0.14826785 0.61760771 3028056
0.10326426 -0.14832649 0.61869526 6449264
0.1036744 -0.14838511 0.61978281 9927291
0.1032619 -0.14787792 0.62105316 10063238
0.10367273 -0.14793667 0.62214255 10193789
0.10326228 -0.14742976 0.62341821 10127988
0.10367377 -0.14748859 0.62450933 10061685
0.10326532 -0.14698197 0.62579036 10061687
0.10285822 -0.14647555 0.62707496 10127224
0.10327104 -0.14653459 0.62816966 10126969
0.10286589 -0.1460284 0.62945962 10192760
0.10246216 -0.14552248 0.63075316 10127224
0.10205974 -0.14501671 0.63205028 10127225
0.1024746 -0.14507605 0.63315022 10193017
0.10207419 -0.14457059 0.6344527 10258297
0.10248974 -0.14462999 0.63555443 10323833
0.10290527 -0.14468938 0.63665622 10455674
0.10250756 -0.14418432 0.6379658 10259324
0.10129859 -0.14311503 0.63948834 10127992
0.10090423 -0.14261043 0.64080673 10193012
0.10051119 -0.14210604 0.64212871 10258551
0.10011952 -0.14160183 0.64345431 10127482
0.10053912 -0.14166181 0.64456683 10061431
0.10014938 -0.14115784 0.64589763 9930101
0.10056959 -0.1412179 0.647012 9864053
0.10018195 -0.14071433 0.64834821 9864053
0.099795669 -0.14021085 0.64968789 9864056
0.099410698 -0.1397076 0.65103132 9798524
0.098221183 -0.1386411 0.65260553 9732984
0.097839594 -0.13813834 0.65395772 9667444
0.097459346 -0.13763575 0.65531349 9667441
0.097884268 -0.13769649 0.65644026 9667695
0.097506016 -0.1371942 0.65780139 9733233
0.097129047 -0.13669209 0.6591661 9733491
0.096753508 -0.13619018 0.66053438 9733492
0.097180486 -0.13625118 0.66166639 9733494
0.097607419 -0.13631222 0.66279852 9798776
0.096434712 -0.13524817 0.66441721 9733242
0.096863002 -0.13530938 0.66555285 9732728
0.096492738 -0.13480823 0.66693532 9667190
0.096123904 -0.13430725 0.66832137 9601651
0.095756397 -0.13380654 0.66971099 9601649
0.096186712 -0.13386804 0.67085195 9667188
0.094229579 -0.13224359 0.67275488 9667959
0.094661891 -0.13230537 0.67390126 9732983
0.094299778 -0.13180538 0.67530507 9732983
0.093938962 -0.13130562 0.67671251 9798776
0.093579546 -0.130806 0.67812347 9799033
0.09401387 -0.13086809 0.67927516 9798520
0.093656436 -0.13036878 0.68069148 9798775
0.09409143 -0.13043097 0.68184489 9798776
0.092945561 -0.12937067 0.68353468 9995641
0.093381867 -0.12943308 0.68469179 10192246
0.093029156 -0.12893443 0.68612057 9995380
0.091889307 -0.127875 0.68782645 9864311
0.090752184 -0.12681603 0.68953949 9865081
0.090404823 -0.12631814 0.69098252 9864312
0.090058759 -0.12582047 0.69242907 9733495
0.089714065 -0.12532294 0.69387925 9667959
0.08858566 -0.12426521 0.69561535 9536632
0.089028731 -0.12432854 0.69679022 9471352
0.089471802 -0.12439184 0.69796497 9602679
0.089131832 -0.12389506 0.6994276 9733496
0.088793129 -0.12339842 0.70089376 9799033
0.089237526 -0.12346192 0.70207208 9929850
0.088900879 -0.1229656 0.7035436 9930618
0.087785259 -0.12190965 0.70531356 9996151
0.08745198 -0.12141378 0.70679396 10061684
0.087899074 -0.12147772 0.70797944 10126965
0.031608913 -0.23564385 0.71913934 9667705
0.031183172 -0.23531626 0.72063529 9732984
0.030758869 -0.23498888 0.72213477 9732984
0.087567776 -0.1209821 0.70946515 10126711
0.086460233 -0.11992735 0.71125662 10126458
0.086132318 -0.11943224 0.71275115 10060926
0.08658208 -0.11949655 0.71394384 10061179
0.087031841 -0.11956084 0.71513629 9995896
0.085931614 -0.1185071 0.71694732 9930101
0.084834099 -0.11745377 0.71876532 9995634
0.085286558 -0.11751844 0.7199651 10126709
0.084966049 -0.11702442 0.7214793 9995895
0.085419163 -0.11708918 0.72268075 9864822
0.085100606 -0.11659542 0.72420037 9865076
0.084012508 -0.11554343 0.72604328 9930610
0.083697379 -0.11505018 0.72757179 10061936
0.083383545 -0.11455709 0.72910368 10192755
0.083840027 -0.11462234 0.73031414 9996150
0.081991658 -0.11301343 0.73250544 9865081
0.081682548 -0.11252104 0.73404992 9865340
0.082141727 -0.11258666 0.7352674 9865082
0.081068337 -0.11153676 0.7371496 9996408
0.081528857 -0.11160259 0.7383706 10127224
0.081989348 -0.11166842 0.73959178 9996152
0.081685618 -0.11117677 0.74115044 9930865
0.080619663 -0.11012799 0.74305212 9997162
0.080319256 -0.1096368 0.74461979 10061424
0.080782443 -0.109703 0.745848 8676982
0.080484077 -0.10921213 0.74742091 7366249
0.08094795 -0.10927844 0.74865085 7300700
0.10211061 -0.12759857 0.65528989 9798518
0.10174094 -0.1270813 0.65665054 9733237
0.1021672 -0.12714224 0.65778089 9732981
0.10179959 -0.12662533 0.6591469 9667189
0.10064006 -0.12553075 0.6607542 9667446
0.10106838 -0.12559198 0.66188967 9733238
0.10070471 -0.12507558 0.66326654 9667702
0.10113366 -0.12513691 0.66440403 9667703
0.10156263 -0.12519822 0.66554129 9602169
0.10120173 -0.12468223 0.66692519 9602163
0.10084213 -0.12416643 0.66831267 9667694
0.10048392 -0.12365085 0.66970372 9799026
0.098551273 -0.12198135 0.67160189 9798775
0.098197058 -0.12146635 0.67300355 9799287
0.098630726 -0.12152833 0.67415339 9799287
0.098278552 -0.12101361 0.67556047 9733495
0.098712876 -0.12107569 0.67671204 9733496
0.098362699 -0.12056121 0.67812443 9799032
0.098797709 -0.12062341 0.6792779 9733496
0.099232689 -0.12068561 0.68043125 9668217
0.098102689 -0.11959526 0.68211687 9733499
0.096975401 -0.11850534 0.68380952 9864569
0.097413078 -0.1185679 0.68497008 9864568
0.095509291 -0.11690256 0.68694472 9864568
0.095948994 -0.1169654 0.68811059 9929848
0.095609576 -0.1164525 0.68955147 9929850
0.095271483 -0.11593977 0.69099581 9995388
0.095712528 -0.11600281 0.69216526 10061184
0.095376387 -0.11549035 0.69361508 10061701
0.094265208 -0.11440271 0.69535035 10127487
0.094708264 -0.11446609 0.69652516 10127481
0.094376236 -0.11395422 0.69798565 10193273
0.094819963 -0.11401762 0.69916219 10127482
0.094489887 -0.11350605 0.70062792 10127483
0.094161198 -0.11299464 0.70209724 10061948
0.093061417 -0.11190866 0.70386291 10061946
0.093507841 -0.1119725 0.70504665 9996152
0.09318319 -0.1114617 0.70652658 9930615
0.09285982 -0.11095101 0.70801014 9864823
0.091768086 -0.10986619 0.70979714 9864821
0.092217162 -0.10993037 0.71098793 9799283
0.091897875 -0.10942036 0.71248221 9799285
0.092347667 -0.10948466 0.71367478 9930359
0.091263279 -0.10840082 0.7154814 10061176
0.090181679 -0.1073174 0.71729505 9995898
0.089868397 -0.10680825 0.71880525 9930362
0.089556441 -0.10629921 0.72031915 9930362
0.090010256 -0.10636407 0.72152233 9995895
0.09046407 -0.10642898 0.72272563 9930357
0.089391813 -0.1053469 0.72456431 9930612
0.089846924 -0.10541198 0.72577107 9930356
0.088778749 -0.10433048 0.72762036 9930356
0.089235216 -0.10439578 0.72883075 9930869
0.087410644 -0.10274172 0.7310155 9996922
0.087869152 -0.10280725 0.73223126 9275520
0.087568656 -0.1022999 0.73377532 8552806
0.088027805 -0.10236555 0.73499286 7363917
0.088486984 -0.10243121 0.73621035 6180438
0.088946164 -0.10249686 0.73742783 6379360
0.12525341 -0.10703023 0.61620885 9798259
0.12566425 -0.107089 0.61729825 9732723
0.12450436 -0.10588299 0.61874449 9732722
0.12413186 -0.10530962 0.62001765 9798257
0.12454467 -0.10536866 0.62111223 9863540
0.12417415 -0.10479555 0.62239075 9798263
0.12458764 -0.10485464 0.62348723 9732470
0.12343714 -0.10364997 0.6249584 9863541
0.12307066 -0.10307749 0.62624753 9994612
0.12348619 -0.10313693 0.62734938 9929076
0.12312171 -0.10256469 0.62864387 9863539
0.12197922 -0.10136116 0.63013631 9863538
0.12239678 -0.10142082 0.63124347 9863538
0.12203634 -0.10084924 0.63254863 9732466
0.12245455 -0.10090901 0.63365757 9666679
0.12209615 -0.10033767 0.63496816 9734525
0.12251504 -0.10039756 0.63607883 9865566
0.12215863 -0.0998265 0.63739467 5243199
0.12180352 -0.099255577 0.63871396 661326
0.12144981 -0.098684952 0.64003694 8689757
0.1218707 -0.098745123 0.6411531 16697970
0.12151897 -0.098174736 0.64248133 15662472
0.12116861 -0.097604573 0.64381325 14651213
0.12004827 -0.096404195 0.64536452 9112083
0.11970128 -0.095834449 0.64670527 3689285
0.1193556 -0.095264941 0.64804959 6849142
0.11978057 -0.095325708 0.64917624 9995125
0.11943686 -0.094756484 0.65052605 9863540
0.11986245 -0.094817325 0.65165448 9732468
0.12028809 -0.094878122 0.65278304 9798260
0.11918049 -0.093679577 0.65436804 9863796
0.11807565 -0.092481464 0.6559602 9929333
0.11773866 -0.091913126 0.65732765 9995637
0.11816764 -0.091974489 0.65846509 9995893
0.1170688 -0.090777203 0.66007328 10061175
0.11749913 -0.090838715 0.66121423 10127224
0.1179294 -0.090900242 0.6623553 10258294
0.11759783 -0.090332769 0.66373694 10127221
0.11650635 -0.089136496 0.66536474 10061428
0.11693865 -0.089198299 0.66651106 10192500
0.11661114 -0.088631324 0.66790342 10322808
0.11628492 -0.088064618 0.66929936 10191997
0.11596008 -0.087498106 0.67069888 10060921
0.1163944 -0.087560177 0.67185056 9995381
0.11607157 -0.086993933 0.67325532 9995379
0.11423703 -0.085171334 0.67517364 9929842
0.1139182 -0.084605634 0.67658925 9929846
0.11435588 -0.084668249 0.67774987 9929849
0.11403903 -0.084102824 0.67917061 9929849
0.1144774 -0.084165491 0.68033302 9995641
0.11265631 -0.082344845 0.68228698 10126714
0.11384913 -0.083035469 0.68318892 9930108
0.1063887 -0.13788293 0.5692395 2958620
0.10678947 -0.13794023 0.57030213 2893600
0.10719027 -0.13799752 0.57136476 2893604
0.10842706 -0.13865133 0.57232147 2893348
0.10966256 -0.13930489 0.57327461 2893347
0.11089674 -0.13995828 0.57422423 2893602
0.067917347 -0.15516926 0.55107272 4931383
0.068329498 -0.15522824 0.55216575 5062709
0.069617882 -0.15583904 0.55318689 5062707
0.073531538 -0.15810516 0.55398369 5062709
0.075690061 -0.15926702 0.55491698 5128502
0.077845931 -0.16042854 0.55584323 5193526
0.079999045 -0.16158971 0.55676228 5063478
0.08127667 -0.16219898 0.55775487 4931382
0.082553044 -0.16280812 0.55874395 4997429
0.085570946 -0.16451953 0.55956101 5128247
0.087714061 -0.16567922 0.56045341 4996920
0.089854509 -0.1668385 0.56133866 4866101
0.091992229 -0.16799746 0.56221682 4866354
0.094127253 -0.16915597 0.56308782 4866101
0.097995922 -0.17141566 0.56376541 4735033
0.10012423 -0.17257321 0.56461871 4603961
0.10138309 -0.17317988 0.56556141 4800826
0.1035067 -0.17433678 0.56640232 4996657
0.10476215 -0.17494288 0.56733614 4666408
0.10601632 -0.17554881 0.56826645 4407121
0.106405 -0.17560436 0.56929702 7106682
0.10679369 -0.17565995 0.57032776 9799797
0.1071824 -0.17571552 0.5713582 9667696
0.10757105 -0.1757711 0.57238889 9601907
0.10709833 -0.17527686 0.57353044 9601911
0.10576619 -0.17423315 0.57478827 9666934
0.10615687 -0.17428897 0.57582426 9666933
0.10568818 -0.17379531 0.57697642 9732467
0.10607955 -0.17385124 0.57801414 9732722
0.1056128 -0.17335786 0.57917178 9732724
0.10600486 -0.17341389 0.58021128 9732981
0.10554016 -0.17292084 0.58137417 9798516
0.10507682 -0.17242794 0.58254063 9798515
0.10547021 -0.17248417 0.58358371 9798771
0.10415417 -0.17144272 0.58488429 9864563
0.1045489 -0.17149916 0.58593088 9995378
0.10409021 -0.1710069 0.58710986 9995377
0.10448562 -0.17106342 0.58815825 10060914
0.10402898 -0.17057149 0.58934259 10126707
0.10442507 -0.17062815 0.59039271 10257776
0.10397042 -0.17013647 0.5915823 10060654
0.10266712 -0.16909683 0.59291673 9864561
0.10306518 -0.16915372 0.59397221 9864565
0.10261461 -0.16866267 0.59517252 9930100
0.10301338 -0.16871968 0.59622979 9996148
0.10256477 -0.16822891 0.59743547 10061685
0.10296421 -0.16828601 0.59849465 9996407
0.10251765 -0.16779551 0.59970558 9930615
0.10207245 -0.1673052 0.60092008 9865078
0.10162851 -0.16681507 0.60213816 9799030
0.10118601 -0.16632517 0.60335976 9864566
0.10158813 -0.16638263 0.60442603 9930099
0.10114759 -0.16589303 0.60565305 9930097
0.1015504 -0.16595058 0.60672104 9995125
0.10027052 -0.1649143 0.60811764 10060664
0.10067466 -0.16497207 0.60918921 10191738
0.10107878 -0.16502984 0.61026073 9995131
0.10064363 -0.16454101 0.61150193 9864058
0.10020986 -0.16405231 0.61274678 9798522
0.099777386 -0.16356386 0.61399519 9732982
0.10018352 -0.16362192 0.61507201 9732979
0.099753097 -0.16313374 0.61632568 9732981
0.099323958 -0.1626457 0.61758292 9733239
0.099731416 -0.16270393 0.61866343 9732984
0.099304318 -0.16221623 0.6199261 9733242
0.099712491 -0.16227458 0.62100828 9798777
0.099287421 -0.16178718 0.62227619 9864568
0.098031119 -0.16075429 0.62373519 9930101
0.098441288 -0.16081288 0.62482268 9930097
0.098020151 -0.16032605 0.62610137 9995892
0.063563049 -0.24412636 0.58692563 6117202
0.06395711 -0.24418266 0.58797038 5919822
0.065275118 -0.24466483 0.58887923 6180683
0.065668508 -0.24472104 0.58992231 6446424
0.066061899 -0.24477728 0.59096539 8219749
0.066455275 -0.24483351 0.59200841 9993841
0.066848695 -0.24488975 0.59305155 9865341
0.067242041 -0.24494599 0.59409457 9734011
0.066715479 -0.24457704 0.59528434 9732986
0.067109555 -0.24463339 0.59632915 9732731
0.067503601 -0.24468969 0.59737402 9930621
0.067897633 -0.24474601 0.59841883 10127726
0.065539882 -0.24352793 0.59992516 5191520
0.065019369 -0.24315988 0.60113084 262779
0.065416098 -0.24321656 0.60218287 8353687
0.065812856 -0.24327327 0.60323483 16512458
0.065295026 -0.24290557 0.60444772 16580350
0.064778477 -0.24253805 0.60566413 16711410
0.066089839 -0.24301924 0.60655522 15138535
0.065574631 -0.24265184 0.60777521 13608308
0.065972731 -0.24270876 0.60883075 6816001
0.061814681 -0.24064599 0.61073542 65877
0.062216103 -0.24070339 0.61179984 8026794
0.06261754 -0.24076076 0.61286426 16053460
0.063018993 -0.24081813 0.61392868 16383742
0.06342043 -0.2408755 0.6149931 16711422
0.062914029 -0.24050947 0.61623621 16711422
0.063316107 -0.24056695 0.61730248 16711422
0.062811702 -0.24020119 0.6185509 16711422
0.063214481 -0.24025874 0.61961895 16711378
0.062712088 -0.23989324 0.62087274 14218919
0.062210977 -0.2395279 0.62213022 11743316
0.060807452 -0.23873995 0.62358052 5898497
0.060309783 -0.23837514 0.62484682 68658
0.060715899 -0.23843314 0.62592363 4217956
0.061122045 -0.23849122 0.62700057 8353921
0.060626999 -0.2381268 0.62827396 8688797
0.06103383 -0.23818494 0.62935269 9002354
0.060540766 -0.23782076 0.63063133 4793927
0.060948282 -0.23787899 0.63171178 665670
0.059558839 -0.23709305 0.63319957 4270662
0.059967667 -0.23715152 0.6342836 7895651
0.058582261 -0.23636608 0.635782 8949632
0.058992416 -0.2364247 0.63686955 9996413
0.057610989 -0.23563989 0.63837862 9864059
0.057127386 -0.23527704 0.63968229 9733497
0.057539552 -0.23533599 0.6407752 9668471
0.057057977 -0.23497348 0.64208424 9668476
0.056577697 -0.23461114 0.64339685 9733761
0.05699122 -0.23467024 0.64449334 9799039
0.057404727 -0.23472933 0.64558977 9864573
0.056927174 -0.23436739 0.64690948 9930110
0.056450933 -0.23400564 0.6482327 9995903
0.055976078 -0.23364408 0.6495595 10061182
0.055502579 -0.2332827 0.65088987 9929853
0.054141939 -0.23250087 0.65245414 9798782
0.053671777 -0.23213996 0.65379333 9733758
0.053202957 -0.23177926 0.65513623 9668220
0.053621858 -0.23183917 0.6562469 9668219
0.053155005 -0.23147874 0.6575951 9733501
0.053574577 -0.23153873 0.6587075 9733503
0.053109735 -0.23117857 0.66006112 9733502
0.053529963 -0.23123865 0.66117537 9602430
0.05218415 -0.23045893 0.66277874 9536893
0.052605763 -0.23051919 0.66389656 9537148
0.052145645 -0.23015974 0.66526258 9602172
0.050805852 -0.22938086 0.66688198 9601916
0.051229417 -0.22944142 0.66800517 9667450
0.050773352 -0.22908251 0.66938186 9667193
0.051197618 -0.22914316 0.67050683 9667448
0.05074355 -0.22878461 0.67188877 9536376
0.050290823 -0.2284262 0.6732744 9470841
0.049839392 -0.22806798 0.67466342 9602170
0.049389362 -0.22770996 0.67605615 9733498
0.04981631 -0.227771 0.67718816 9799034
0.048493341 -0.22699453 0.67885208 9864570
0.048047289 -0.22663708 0.68025547 9734010
0.048476249 -0.22669841 0.68139291 9668474
0.048905194 -0.22675972 0.68253028 9799547
0.048461884 -0.22640269 0.68394077 9930364
0.048019931 -0.22604583 0.68535477 9930109
0.048450202 -0.22610734 0.68649572 9995898
0.048010245 -0.22575076 0.68791509 9930360
0.046702012 -0.22497638 0.68961823 9864567
0.046265393 -0.2246203 0.69104648 9799030
0.045830116 -0.2242644 0.6924783 9799031
0.046263784 -0.22432639 0.69362819 9733497
0.045830548 -0.22397076 0.69506538 9667706
0.045398623 -0.22361536 0.69650602 9536635
0.045833632 -0.22367753 0.69765949 9470844
0.044538796 -0.22290508 0.69939816 9601918
0.043246716 -0.22213303 0.70114398 9732731
0.031203959 -0.23505251 0.723315 9798520
0.029914249 -0.23433472 0.72514457 9667448
0.042820767 -0.22177844 0.70260078 9732728
0.043259144 -0.22184111 0.70376313 9798011
0.041973069 -0.22106992 0.70552492 9865342
0.041551232 -0.22071593 0.70699233 9996905
0.041991606 -0.22077887 0.70816004 5447765
0.041571781 -0.22042517 0.70963275 917896
0.041153267 -0.22007166 0.7111091 8819388
0.029493954 -0.23400791 0.72665477 9536377
0.029941063 -0.23407184 0.7278403 9471098
0.029522728 -0.23374529 0.72935581 9471591
0.041594967 -0.22013481 0.71228033 16711388
0.028241117 -0.23302861 0.73120677 8417108
0.027826179 -0.2327026 0.73273122 7297368
0.028275941 -0.23276688 0.73392391 6969693
0.042036697 -0.22019796 0.71345156 16711421
0.042478427 -0.22026111 0.7146228 16711090
0.042920113 -0.22032426 0.71579403 9650022
0.074764684 -0.2209243 0.60507917 9732986
0.041649491 -0.21955527 0.71759683 2621782
0.040381495 -0.21878664 0.71940672 3670341
0.039971087 -0.21843429 0.72090435 4739917
0.075164109 -0.22098143 0.60613823 9798521
0.074670807 -0.22057946 0.60736197 9864055
0.037853707 -0.21725059 0.72304791 10730837
0.037447255 -0.21689877 0.72455621 16694611
0.03789502 -0.21696277 0.72574341 14663250
0.036638487 -0.21619579 0.72758377 12607273
0.074178874 -0.22017772 0.60858941 9799030
0.074579626 -0.22023501 0.60965204 9733751
0.074089661 -0.21983354 0.61088479 9733753
0.074491128 -0.21989097 0.61194921 9799289
0.074003175 -0.21948977 0.61318731 9799034
0.074405313 -0.21954729 0.61425346 9864319
0.07391943 -0.21914639 0.61549687 9864836
0.073434874 -0.21874572 0.61674386 9799552
0.072951585 -0.21834518 0.61799431 9799548
0.072469741 -0.21794491 0.61924851 9799799
0.072874531 -0.21800277 0.62032181 9799539
0.072394684 -0.21760273 0.6215812 9864822
0.071916178 -0.21720293 0.62284422 9864825
0.072322309 -0.21726102 0.62392104 9799289
0.071845815 -0.21686146 0.6251893 9864570
0.072252631 -0.21691962 0.62626803 9929852
0.070896804 -0.21606296 0.62773669 9864319
0.071304962 -0.21612132 0.62881887 9798781
0.070833161 -0.21572246 0.63009971 9733244
0.07124199 -0.21578091 0.63118374 9733243
0.069893599 -0.21492532 0.63267195 9667962
0.069425806 -0.214527 0.63396335 9602422
0.069836631 -0.21458575 0.6350528 9733490
0.069370851 -0.21418776 0.63634956 9864824
0.069782361 -0.21424657 0.63744068 9930366
0.068443403 -0.21339233 0.63895375 10061436
0.068856224 -0.21345136 0.6400485 9930107
0.068395138 -0.213054 0.64135778 9864570
0.067935407 -0.21265689 0.64267063 9864569
0.067477033 -0.21225992 0.64398694 9864824
0.067891911 -0.21231924 0.645087 9864824
0.067435548 -0.21192262 0.64640868 9864823
0.067851067 -0.211982 0.64751047 9733494
0.068266615 -0.21204142 0.64861238 9667958
0.067812949 -0.21164514 0.64994109 9601910
0.068229154 -0.21170464 0.65104473 9470327
0.066909567 -0.21085317 0.65260947 9272952
0.067327142 -0.21091284 0.65371668 9075828
0.066878155 -0.21051724 0.65505791 8944496
0.066430539 -0.21012186 0.65640283 8813164
0.065984234 -0.20972666 0.6577512 8681833
0.066403821 -0.20978665 0.65886366 8616041
0.065959483 -0.20939168 0.66021752 8483945
0.065516546 -0.20899697 0.66157472 8417643
0.064212471 -0.20814769 0.66318047 8352366
0.062911034 -0.20729882 0.66479337 8352622
0.062473446 -0.20690483 0.66616493 8550510
0.062037244 -0.20651108 0.66754007 8682098
0.062462181 -0.20657182 0.66866672 8944759
0.062887117 -0.20663258 0.66979349 9207415
0.062453553 -0.20623918 0.67117572 9339512
0.062021345 -0.20584597 0.67256153 9536631
0.061590508 -0.20545295 0.67395079 9602166
0.060304537 -0.20460629 0.67560458 9667701
0.060732827 -0.20466754 0.67674023 9733236
0.060305953 -0.20427506 0.67814028 9733233
0.05988048 -0.20388286 0.67954385 9732975
0.060310096 -0.20394425 0.68068302 9798258
0.059886649 -0.20355232 0.68209195 9798518
0.059464544 -0.20316057 0.68350446 9798775
0.059895515 -0.20322216 0.68464726 9798777
0.058624282 -0.2023776 0.68634021 9798777
0.059056565 -0.20243938 0.68748647 9864570
0.058639169 -0.2020483 0.68891144 9864826
0.059072152 -0.20211022 0.69005954 9930619
0.057808354 -0.20126672 0.69177198 9931132
0.057394952 -0.20087622 0.69320762 9996670
0.057829961 -0.20093839 0.69436109 9996667
0.055725768 -0.19964333 0.69637716 10061944
0.056162775 -0.19970579 0.69753587 10193017
0.054909661 -0.19886383 0.69927692 10061690
0.055348054 -0.19892649 0.70043921 9996153
0.054098949 -0.19808511 0.70219088 9930616
0.054538697 -0.19814798 0.70335674 9930617
0.054136053 -0.19775902 0.70482099 9865083
0.05373475 -0.19737023 0.70628858 9799290
0.053334698 -0.19698161 0.70775986 9799546
0.052095726 -0.19614168 0.70953816 9865080
0.051699147 -0.19575356 0.71101832 9930359
0.036236126 -0.21584462 0.72910267 6291713
0.035835076 -0.21549362 0.73062527 65874
0.035435397 -0.21514277 0.73215145 6973604
0.034187544 -0.21437705 0.73401475 13884364
0.034640018 -0.21444175 0.73521447 15269621
0.035092492 -0.21450643 0.73641419 16709788
0.034697484 -0.21415628 0.73795283 10858563
0.034303796 -0.21380629 0.73949504 4992069
0.032219294 -0.21262729 0.74172568 6837319
0.032675106 -0.21269245 0.74293435 8748892
0.032286156 -0.21234319 0.74448895 9341298
0.032742646 -0.21240844 0.74569929 9993062
0.033199135 -0.21247372 0.74690974 8021082
0.03365564 -0.21253896 0.74812007 6120031
0.097600505 -0.15983939 0.62738347 9996407
0.098011985 -0.15989821 0.62847471 10061943
0.097594321 -0.15941183 0.62976211 10061943
0.097177953 -0.15892568 0.63105321 10127479
0.09676291 -0.15843965 0.63234788 10127478
0.096349224 -0.15795387 0.63364601 10127478
0.095936909 -0.15746827 0.63494778 10061941
0.096351773 -0.15752758 0.63604784 9996151
0.095941484 -0.15704229 0.63735485 9996152
0.095532522 -0.15655716 0.63866556 10061434
0.094301015 -0.15552777 0.64019036 10061947
0.093895406 -0.15504314 0.64150995 10127226
0.093491122 -0.15455869 0.64283311 10061689
0.093910053 -0.15461859 0.64394379 10061689
0.093507797 -0.15413442 0.64527225 9996666
0.093927398 -0.1541944 0.64638466 9996406
0.093527049 -0.1537105 0.64771843 9930867
0.093947321 -0.15377058 0.64883268 9864820
0.093549073 -0.15328701 0.65017188 9864821
0.093969986 -0.15334716 0.65128791 9930097
0.092756674 -0.15232041 0.65286082 9864558
0.091545969 -0.15129398 0.65444088 9798769
0.091969565 -0.15135455 0.65556395 9732469
0.091578066 -0.15087193 0.65692091 9666934
0.091187909 -0.15038952 0.65828145 9732727
0.091612846 -0.15045029 0.65940821 9798773
0.092037782 -0.15051101 0.66053486 10192500
0.092462718 -0.15057178 0.66166162 10650737
0.092075899 -0.1500898 0.66303098 9798509
0.092501506 -0.15015066 0.66415954 9010027
0.092927098 -0.1502115 0.66528797 8809833
0.09335272 -0.15027232 0.66641653 8613478
0.092969194 -0.14979082 0.66779482 8351330
0.093395486 -0.14985178 0.66892505 8154718
0.093821749 -0.1499127 0.67005539 8154969
0.09344101 -0.14943165 0.67144084 8219993
0.093867958 -0.14949267 0.67257285 8153434
0.092683509 -0.14847003 0.67422235 8088923
0.093111768 -0.14853127 0.67535794 8089948
0.092735678 -0.14805083 0.67675579 8155484
0.093164623 -0.14811216 0.67789322 8221021
0.092790589 -0.14763203 0.67929649 8351837
0.091615513 -0.14661074 0.68097079 8417118
0.089641422 -0.14504854 0.68292165 8483170
0.088472396 -0.1440281 0.68461198 8549478
0.088106394 -0.14354913 0.68603653 8615271
0.086942047 -0.14252934 0.68773937 8681064
0.085780397 -0.14150999 0.68944931 8747371
0.086218089 -0.14157255 0.69060981 8878445
0.084262788 -0.14001304 0.6926105 9075822
0.084702492 -0.14007589 0.69377637 9207408
0.047552198 -0.19820255 0.55701828 5454922
0.051615089 -0.2001953 0.55778784 5126462
0.052935585 -0.20073707 0.55878836 4930866
0.054254785 -0.20127861 0.55978537 4734516
0.056483567 -0.2023032 0.56069338 4799542
0.057799339 -0.20284429 0.56168151 4930358
0.060023502 -0.20386821 0.56257707 4734006
0.061335906 -0.20440882 0.56355631 4603704
0.064463705 -0.2059149 0.56434691 4603707
0.066679731 -0.20693764 0.56522131 4669241
0.070707023 -0.20892529 0.56589663 4668727
0.072010055 -0.20946452 0.56685084 4734004
0.073311776 -0.21000361 0.56780148 4734258
0.07642208 -0.21150719 0.56854594 4734514
0.078623995 -0.21252792 0.56938291 4734258
0.080823302 -0.21354832 0.57021266 4734779
0.082116947 -0.2140862 0.57114184 4143172
0.084311455 -0.21510586 0.57195932 3484740
0.084700167 -0.21516146 0.57298982 5983301
0.085989833 -0.21569884 0.57390845 8420967
0.086377859 -0.21575432 0.57493734 8491658
0.08676587 -0.21580975 0.57596612 8549701
0.086254939 -0.21538372 0.57711232 8459521
0.086643562 -0.2154393 0.57814288 8464651
0.086134732 -0.21501353 0.57929444 10521877
0.085627183 -0.21458802 0.58044946 12579097
0.085121021 -0.21416268 0.58160806 11124509
0.085511714 -0.21421854 0.5826441 9670159
0.085007519 -0.21379352 0.58380795 7012609
0.084504619 -0.21336861 0.58497548 4479038
0.084003136 -0.21294394 0.58614647 7176315
0.084395841 -0.21300007 0.58718789 9929341
0.083896369 -0.2125757 0.5883643 9732479
0.084289759 -0.2126319 0.58940732 9601147
0.083792269 -0.21220781 0.59058905 9404024
0.08329612 -0.21178393 0.59177446 9206895
0.083690867 -0.21184038 0.592821 9272679
0.083196685 -0.21141674 0.59401166 9404527
0.082703903 -0.21099333 0.5952059 9470584
0.082212523 -0.21057008 0.5964036 9601915
0.082609251 -0.2106268 0.59745562 9733247
0.081233665 -0.20972417 0.59880984 9930108
0.081631735 -0.2097811 0.59986538 9929850
0.081144989 -0.20935853 0.60107565 9864314
0.081543773 -0.20941554 0.60213292 9930107
0.081059024 -0.20899329 0.60334849 9995899
0.081458434 -0.20905036 0.60440755 9864571
0.080975756 -0.20862839 0.60562843 9799035
0.080494374 -0.20820661 0.60685301 9864571
0.080014333 -0.20778497 0.6080811 9864827
0.08041577 -0.20784238 0.6091454 9930363
0.079937756 -0.20742106 0.61037886 9995899
0.080339879 -0.20747854 0.61144507 9864828
0.079863936 -0.20705752 0.61268371 9733756
0.079389244 -0.20663668 0.61392593 9799036
0.079792723 -0.20669439 0.61499578 9929593
0.079320028 -0.20627378 0.61624336 9864311
0.078848734 -0.20585345 0.61749458 9864312
0.079253539 -0.20591134 0.61856782 9864314
0.07791017 -0.20501333 0.62000763 9864571
0.078316331 -0.20507137 0.62108445 9864573
0.077849731 -0.20465173 0.62234813 9930365
0.077384427 -0.2042322 0.62361521 9996157
0.077791959 -0.20429046 0.62469566 9996412
0.077328682 -0.20387125 0.62596822 10061692
0.07773684 -0.2039296 0.62705046 10127998
0.077275634 -0.2035107 0.62832832 10258816
0.075947031 -0.20261481 0.62980711 10389890
0.075489104 -0.20219634 0.63109398 10588805
0.075899974 -0.20225511 0.63218331 10852995
0.076310813 -0.20231381 0.63327265 10918274
0.075855643 -0.20189577 0.63456655 11049345
0.075401828 -0.20147792 0.6358639 10983552
0.075813979 -0.20153685 0.63695681 10918014
0.076226145 -0.20159577 0.63804978 10719356
0.076638356 -0.20165469 0.63914269 10586493
0.076187864 -0.20123731 0.64044905 10389886
0.077462718 -0.20177256 0.64132851 10258813
0.077874884 -0.20183147 0.64242142 10193532
0.078287065 -0.20189041 0.64351439 10193787
0.078699261 -0.20194933 0.64460719 10259322
0.079111442 -0.20200825 0.64570022 10324857
0.079523623 -0.20206718 0.64679313 10193785
0.079935804 -0.2021261 0.64788604 10127485
0.08034797 -0.20218503 0.64897889 9930881
0.080760151 -0.20224394 0.65007186 9799035
0.081172317 -0.20230289 0.65116477 9602165
0.081584498 -0.20236181 0.65225756 9404273
0.082851306 -0.20289586 0.65311575 9141870
0.083262831 -0.20295468 0.65420687 8943721
0.085380837 -0.20396346 0.65482122 8681061
0.088348806 -0.20544669 0.65518844 8482917
0.089608893 -0.20597979 0.65602875 8416102
0.09001635 -0.20603801 0.65710914 8349287
0.091274455 -0.20657089 0.6579442 8350824
0.091681242 -0.20662905 0.65902275 8352358
0.092937306 -0.20716156 0.65985239 8418660
0.094192013 -0.20769392 0.66067851 8484710
0.094597459 -0.20775187 0.66175354 8549992
0.096697375 -0.20875803 0.66232002 8615530
0.097101495 -0.2088158 0.66339147 8681324
0.098351568 -0.2093475 0.66420507 8747116
0.097909749 -0.20893134 0.66553462 8548973
0.098313868 -0.20898911 0.66660607 8285539
0.06580703 -0.19057585 0.67794561 8416857
0.06623733 -0.19063738 0.67908657 8613735
0.066667631 -0.19069888 0.68022752 8615286
0.064572349 -0.1893404 0.68217444 8617074
0.064163506 -0.18892898 0.68359113 8946286
0.063755989 -0.18851773 0.68501139 9275761
0.064189658 -0.18857975 0.68616116 9537653
0.063784152 -0.18816881 0.6875869 9864822
0.064218476 -0.18823089 0.68873847 9930359
0.064652815 -0.18829297 0.68989009 9995896
0.064249992 -0.18788241 0.6913228 9995641
0.064685017 -0.18794461 0.69247627 9995641
0.06344834 -0.18706185 0.69419897 9930618
0.062214419 -0.1861795 0.69592881 9930873
0.061817601 -0.18576978 0.69737762 9996409
0.060588375 -0.18488811 0.69911981 10062201
0.061028063 -0.18495093 0.70028567 10062202
0.060635358 -0.18454184 0.70174515 10062203
0.061075717 -0.18460478 0.70291287 9996412
0.059853822 -0.18372415 0.70467472 9996154
0.060295567 -0.18378732 0.70584595 9930360
0.058247983 -0.18243565 0.70791912 9799288
0.057862565 -0.18202756 0.70939815 9799288
0.058306962 -0.1820911 0.71057647 9799029
0.057923615 -0.1816833 0.71206087 9799027
0.056714535 -0.18080452 0.71385652 9733493
0.057160959 -0.18086834 0.71504021 9733496
0.056781605 -0.18046112 0.71653521 9667960
0.056403607 -0.18005408 0.71803379 9667705
0.056851372 -0.1801181 0.71922106 9602170
0.05565168 -0.17924066 0.72104156 9601915
0.056100786 -0.17930485 0.72223246 9536378
0.055727512 -0.17889853 0.72374356 9536378
0.055355564 -0.17849237 0.72525811 9471352
0.054984927 -0.1780864 0.72677624 9602167
0.053795308 -0.17721036 0.72862357 9798775
0.054247782 -0.17727506 0.72982329 9667959
0.053881183 -0.17686969 0.73135221 9602423
0.053515941 -0.1764645 0.73288465 9602168
0.053969741 -0.17652935 0.73408782 9667701
0.052789524 -0.17565466 0.73596001 9667699
0.05242832 -0.17525007 0.73750311 9667702
0.052884147 -0.17531525 0.73871177 9667705
0.052524969 -0.1749109 0.74026018 9667961
0.051352739 -0.17403738 0.74215376 9733498
0.051810548 -0.17410281 0.74336779 9799034
0.051455408 -0.17369908 0.74492681 9733498
0.051101625 -0.17329553 0.74648947 9733753
0.049937457 -0.17242312 0.74840444 9799032
0.050397977 -0.17248896 0.74962544 9799032
0.050048172 -0.17208599 0.75119877 9799033
0.048890129 -0.17121449 0.75312984 9799288
0.048543632 -0.17081195 0.7547121 9733496
0.048198536 -0.17040963 0.75629783 9602427
0.048662454 -0.17047596 0.75752783 9668735
0.049126312 -0.17054226 0.75875777 9668460
0.049590185 -0.1706086 0.75998777 7822937
0.050054044 -0.17067491 0.76121771 5986651
0.084345877 -0.13959827 0.69522589 9338481
0.083990648 -0.13912083 0.696679 9338738
0.083636686 -0.13864355 0.69813555 9404273
0.084078372 -0.1387067 0.69930685 9338991
0.08293286 -0.13768966 0.70105946 9273452
0.082582965 -0.13721296 0.70252681 9273706
0.082234383 -0.13673645 0.70399761 9273711
0.082678795 -0.13679998 0.705176 9273717
0.082332239 -0.13632378 0.70665216 9273459
0.082777336 -0.13638744 0.70783234 9338992
0.081643209 -0.13537197 0.70961517 9470066
0.054730564 -0.17045721 0.55279219 5524035
0.056037948 -0.17104022 0.55381984 5326908
0.057344019 -0.17162304 0.55484396 5195065
0.058648765 -0.1722057 0.55586457 4931638
0.066185698 -0.17645198 0.55633771 4669749
0.067483053 -0.17703354 0.55733871 4866101
0.069668174 -0.17813812 0.55825496 5062453
0.071850628 -0.17924234 0.55916393 4997173
0.073142618 -0.17982319 0.56015062 4931893
0.077094734 -0.18197261 0.5608741 4997686
0.079268456 -0.18307556 0.56175995 4998200
0.079667881 -0.18313266 0.56281918 4997434
0.08183758 -0.18423505 0.56369436 4996922
0.083120182 -0.18481453 0.5646562 5062458
0.08616896 -0.18643869 0.56542349 5127994
0.090980038 -0.189107 0.56598556 5062459
0.092254549 -0.18968533 0.56692612 4932157
0.093527719 -0.19026345 0.56786299 4538687
0.094799504 -0.19084136 0.56879628 4208952
0.096950397 -0.19194105 0.56962168 5190194
0.097339094 -0.19199663 0.57065225 6250840
0.097727776 -0.19205217 0.57168293 8093566
0.098116443 -0.19210775 0.57271349 9929850
0.098505124 -0.19216333 0.57374406 9798518
0.098893836 -0.19221888 0.57477468 9601913
0.098406091 -0.19175304 0.57592034 9667197
0.097919717 -0.19128741 0.57706976 9732730
0.097434685 -0.19082196 0.57822239 9667192
0.097825363 -0.19087781 0.57925832 9667447
0.097342327 -0.19041269 0.58041644 9667446
0.097733751 -0.19046862 0.58145428 9667447
0.097252667 -0.19000374 0.58261776 9601912
0.096772999 -0.18953905 0.5837847 9601912
0.096294671 -0.18907458 0.58495533 9601656
0.095817685 -0.18861026 0.58612943 9601657
0.096211746 -0.1886666 0.58717442 9667194
0.095736772 -0.1882026 0.58835387 9732983
0.096131489 -0.18825904 0.58940053 9732725
0.095658481 -0.1877953 0.59058535 9732724
0.096053898 -0.1878518 0.59163368 9601652
0.094716623 -0.18686844 0.5929656 9535862
0.095113352 -0.18692514 0.59401757 9601400
0.093780071 -0.18594229 0.59536028 9666934
0.093313828 -0.18547955 0.5965628 9732725
0.093712568 -0.18553653 0.59762013 9798521
0.093248352 -0.18507411 0.5988282 9732989
0.093647778 -0.18513121 0.59988725 9667705
0.093185559 -0.18466902 0.6011005 9733238
0.091863647 -0.18368782 0.60247344 9799288
0.092265099 -0.18374521 0.6035378 9864571
0.092666551 -0.18380259 0.60460234 9930365
0.092209041 -0.18334107 0.60582805 9930624
0.092611134 -0.18339857 0.60689414 9996157
0.092155635 -0.18293738 0.60812539 10061690
0.092558429 -0.18299492 0.60919333 10127226
0.092104957 -0.18253399 0.61042976 9930618
0.091652736 -0.18207321 0.61166984 9799542
0.09205687 -0.18213099 0.61274141 9930610
0.091606751 -0.18167058 0.61398673 10127477
0.091157958 -0.18121028 0.61523557 10061944
0.091563404 -0.18126826 0.61631072 10061944
0.091116637 -0.18080828 0.61756504 10061945
0.090671226 -0.18034849 0.61882281 10127483
0.090227082 -0.17988886 0.62008417 10061950
0.09063457 -0.17994714 0.62116468 10061435
0.089342937 -0.17897029 0.62261754 9996152
0.088053942 -0.1779938 0.62407768 9996152
0.088464141 -0.17805244 0.62516522 9930616
0.088026702 -0.17759381 0.62644446 9930614
0.088437557 -0.17765252 0.62753379 9864821
0.088002205 -0.17719416 0.62881827 9799027
0.087568194 -0.17673604 0.63010639 9798769
0.08798036 -0.17679496 0.63119924 9864052
0.087548345 -0.17633709 0.63249272 9864056
0.087961197 -0.1763961 0.63358736 9929847
0.087531164 -0.17593849 0.63488615 9929847
0.087102517 -0.17548113 0.63618839 9864054
0.086675197 -0.17502394 0.63749433 9798517
0.087090045 -0.17508323 0.63859439 9733234
0.086664781 -0.17462634 0.63990545 9733232
0.086240828 -0.17416964 0.64122033 9733230
0.086657032 -0.17422916 0.64232397 9667437
0.085396916 -0.17325675 0.64386058 9667182
0.084977001 -0.17280062 0.64518595 9601391
0.084558427 -0.17234468 0.64651501 9470314
0.084977299 -0.17240456 0.64762568 9273190
0.085396215 -0.17246446 0.64873636 9076071
0.084980294 -0.17200889 0.65007246 8878696
0.085399896 -0.17206888 0.65118504 8746084
0.084985927 -0.17161359 0.6525265 8482913
0.083740622 -0.17064334 0.65410233 8285790
0.08333011 -0.17018856 0.65545273 7956060
0.082089454 -0.16921897 0.65704095 7628120
0.082513005 -0.16927952 0.65816408 7364693
0.082106575 -0.1688253 0.65952504 7102033
0.081701383 -0.16837129 0.66088969 6970190
0.082126319 -0.16843204 0.66201651 6838604
0.082551271 -0.16849279 0.66314316 6707274
0.082148775 -0.16803913 0.6645149 6641481
0.082574382 -0.16809998 0.66564345 6509897
0.082999974 -0.16816081 0.66677195 6444096
0.083425596 -0.16822167 0.6679005 6180664
0.083851203 -0.16828252 0.669029 5984057
0.08427681 -0.16834337 0.67015743 5785915
0.084702402 -0.16840419 0.67128599 5589561
0.085950747 -0.16897875 0.67215693 5522999
0.086375684 -0.16903952 0.67328376 5391157
0.086800605 -0.16910025 0.67441046 5193779
0.087225541 -0.16916102 0.67553723 4995890
0.087650478 -0.16922176 0.67666399 4733233
0.1151142 -0.18621947 0.66900074 4536373
0.11551699 -0.18627705 0.67006874 4274233
0.11591977 -0.18633461 0.67113662 4077870
0.11632256 -0.18639219 0.67220461 4737060
0.11590867 -0.18593693 0.67354614 5461071
0.1154961 -0.1854818 0.67489117 7170939
0.1150849 -0.18502694 0.67623973 8948859
0.11548969 -0.18508482 0.67731309 9604987
0.11508052 -0.18463022 0.67866695 10261113
0.11548595 -0.1846882 0.6797421 10127736
0.11507881 -0.18423384 0.68110138 9995126
0.11548492 -0.18429191 0.68217826 9798517
0.11426845 -0.1833258 0.68383062 9667697
0.11467594 -0.18338405 0.68491113 9272430
0.11427346 -0.1829304 0.68628275 8944485
0.11468162 -0.18298875 0.687365 8747356
0.070615843 -0.15490328 0.70466363 8484710
0.071060926 -0.15496691 0.70584369 8813424
0.071505994 -0.15503053 0.7070238 9141873
0.071951076 -0.15509415 0.70820397 9273459
0.072396114 -0.15515777 0.70938408 9339252
0.07123071 -0.15419899 0.71117175 9470326
0.071677148 -0.1542628 0.71235543 9536118
0.07131964 -0.15381557 0.71384633 9601910
0.070963427 -0.15336855 0.71534097 9667447
0.071411207 -0.15343255 0.71652818 9667448
0.071858957 -0.15349653 0.71771544 9667707
0.070704281 -0.15253927 0.71953154 9667711
0.069552258 -0.15158239 0.72135472 9733242
0.070002735 -0.15164678 0.72254908 9798774
0.069653913 -0.15120077 0.72406328 9864054
0.068507954 -0.15024474 0.72590244 9798518
0.068162531 -0.14979927 0.72742546 9733239
0.06861566 -0.14986405 0.72862697 9667705
0.068272233 -0.14941883 0.73015535 9602164
0.067134336 -0.14846398 0.73201585 9667696
0.066794276 -0.14801925 0.73355323 9733236
0.066455573 -0.14757472 0.73509407 9733240
0.0669121 -0.14763999 0.7363044 9733753
0.065782189 -0.14668621 0.73818636 9864827
0.065447509 -0.14624228 0.73973787 9930363
0.065906018 -0.14630781 0.74095362 9930619
0.065573364 -0.14586417 0.74251044 9865846
0.064451545 -0.14491156 0.74441373 9865841
0.064122245 -0.14446838 0.74597955 9866101
0.063005149 -0.14351647 0.74789536 9538170
0.062679157 -0.14307372 0.74946994 9210231
0.063142374 -0.14313994 0.75069809 9603956
0.062818438 -0.14269756 0.75227809 10063481
0.063282281 -0.14276388 0.75350809 10129278
0.063746154 -0.14283018 0.75473809 10194542
0.064210027 -0.1428965 0.75596797 8416094
0.064673901 -0.1429628 0.75719798 6643038
0.082089618 -0.1354358 0.71079892 9404532
0.081747785 -0.13496028 0.71228755 9405045
0.081407279 -0.13448493 0.71377981 9536374
0.081855029 -0.13454893 0.71496701 9667446
0.080730289 -0.13353485 0.71677482 9733239
0.079608262 -0.13252114 0.7185899 9799029
0.077703997 -0.13096891 0.72072577 9930355
0.077372208 -0.13049485 0.72224116 10061430
0.077825353 -0.13055964 0.72344261 10127738
0.075929776 -0.12900867 0.72560167 10193273
0.076384977 -0.12907375 0.72680855 10127736
0.076840088 -0.12913881 0.72801536 10062203
0.076514378 -0.12866558 0.72954667 9996670
0.076970175 -0.12873073 0.73075527 9996409
0.076646477 -0.1282578 0.73229206 9930611
0.077102959 -0.12832308 0.73350245 9865077
0.076003045 -0.1273125 0.73537612 9865079
0.07568337 -0.12684014 0.73692346 9865077
0.075365022 -0.12636799 0.73847449 9930355
0.075824186 -0.12643363 0.73969197 10061428
0.074732304 -0.12542421 0.74158704 9996149
0.074418038 -0.12495261 0.74314868 9930612
0.073330924 -0.12394391 0.74505615 9930866
0.073019892 -0.12347277 0.74662673 9930613
0.073483109 -0.12353899 0.74785495 9996151
0.073174134 -0.12306815 0.74943084 10061944
0.073638022 -0.12313448 0.75066072 10128249
0.074101895 -0.12320079 0.75189078 10194798
0.072255403 -0.12165686 0.75417972 8550244
0.072721288 -0.12172346 0.75541502 6972006
0.11296365 -0.14120774 0.57505894 2959137
0.11502779 -0.1424568 0.57588667 3022108
0.11625659 -0.14310941 0.57682192 1906711
0.11748405 -0.1437619 0.57775378 795948
0.11704738 -0.14322244 0.57891876 3619394
0.11744276 -0.14327896 0.57996726 6511968
0.11783814 -0.14333552 0.58101571 8356223
0.11823356 -0.14339203 0.58206397 10191738
0.1178003 -0.14285314 0.58323789 9865590
0.11736836 -0.14231439 0.58441544 9602422
0.11776508 -0.14237112 0.58546734 9667701
0.11816184 -0.14242783 0.5865193 9798521
0.11855856 -0.14248455 0.58757138 10062205
0.11812998 -0.14194632 0.58875775 10390896
0.11770269 -0.14140823 0.5899477 5585764
0.1172768 -0.14087038 0.59114122 786803
0.11685222 -0.14033274 0.5923382 7693187
0.116429 -0.13979526 0.59353888 14672575
0.1168291 -0.13985246 0.59459972 15662844
0.1164079 -0.13931525 0.59580564 16711391
0.11680867 -0.13937256 0.5968684 14544579
0.11638944 -0.13883565 0.59807968 12358498
0.11679085 -0.13889304 0.59914404 6226177
0.1163737 -0.13835642 0.60036075 131386
0.1151399 -0.13722612 0.60173488 6509172
0.11472605 -0.13668992 0.60296047 12895668
0.11513017 -0.13674769 0.60403204 14810868
0.11553429 -0.1368055 0.60510355 16711410
0.11512318 -0.13626976 0.60633624 16711408
0.064080536 -0.24314551 0.58678329 6247253
0.065398321 -0.24362938 0.58769417 6115660
0.066714853 -0.24411301 0.58860147 7102787
0.066185147 -0.24374186 0.58978033 8090213
0.066578507 -0.24379809 0.59082329 8945288
0.066971883 -0.24385427 0.59186643 9800573
0.068285659 -0.24433757 0.59276658 9734003
0.067758635 -0.2439668 0.59395266 9733495
0.067232966 -0.24359618 0.59514207 9732988
0.067627028 -0.24365245 0.59618688 9732732
0.068021059 -0.24370883 0.59723181 9930364
0.06841512 -0.24376513 0.59827662 10128241
0.066059977 -0.24254204 0.59978211 5982567
0.065540373 -0.24217232 0.60098767 1901440
0.066852152 -0.24265529 0.60188246 8276121
0.066333845 -0.24228571 0.6030916 14740683
0.066730589 -0.24234243 0.60414362 15728382
0.066214353 -0.24197318 0.60535789 16711409
0.066611737 -0.24202998 0.6064117 15793892
0.067009136 -0.24208675 0.60746551 14922866
0.066495523 -0.24171789 0.60868704 7471361
0.062341854 -0.23964672 0.6105904 65873
0.062743276 -0.23970409 0.61165482 6438561
0.063144743 -0.23976152 0.6127193 12905935
0.063546166 -0.23981889 0.61378384 14810878
0.063039944 -0.23945104 0.61502481 16711422
0.064349025 -0.23993365 0.61591256 16711422
0.063844174 -0.23956601 0.61715722 16711422
0.064246297 -0.2396235 0.61822355 16711422
0.063743412 -0.23925613 0.61947346 16711390
0.064146221 -0.23931374 0.62054157 12902335
0.06183809 -0.23809732 0.6221717 9056864
0.0613399 -0.23773064 0.62343407 5112065
0.060843125 -0.23736413 0.62470019 1247751
0.061249241 -0.23742221 0.62577701 3278094
0.051303819 -0.19536564 0.712502 9995895
0.051748216 -0.19542915 0.71368039 9995896
0.061655372 -0.23748024 0.62685388 5243174
0.051354975 -0.19504151 0.71516943 9996151
0.050126061 -0.19420302 0.7169745 10061430
0.061161265 -0.23711415 0.6281271 5308735
0.061568066 -0.23717232 0.6292057 5308725
0.061075896 -0.23680647 0.63048422 3475756
0.049736157 -0.19381587 0.71847242 10126963
0.04934755 -0.1934289 0.71997392 9995889
0.0497953 -0.1934929 0.72116113 9864818
0.048574492 -0.19265555 0.72298747 9799284
0.049023569 -0.19271976 0.72417843 9668466
0.048639745 -0.19233346 0.72569233 9668208
0.049089491 -0.19239777 0.72688484 9733231
0.061483398 -0.2368647 0.63156474 1708349
0.060095713 -0.23607539 0.63305187 4862287
0.060504541 -0.23613386 0.63413608 8026216
0.059120879 -0.23534511 0.63563395 9014657
0.048707664 -0.19201176 0.72840416 9667438
0.048327088 -0.19162594 0.72992712 9601905
0.059531063 -0.23540376 0.63672143 9996413
0.048778221 -0.19169043 0.73112321 9602164
0.047570154 -0.19085492 0.73298347 9667957
0.048022583 -0.19091958 0.73418319 9733239
0.047646776 -0.19053446 0.73571849 9864312
0.048099905 -0.19059922 0.73691988 9798778
0.04607226 -0.18931513 0.73913896 9799032
0.046527416 -0.18938017 0.74034572 9733494
