# .PCD v0.7 - Point Cloud Data file format
VERSION 0.7
FIELDS x y z
SIZE 4 4 4
TYPE F F F
COUNT 1 1 1
WIDTH 1415
HEIGHT 1
VIEWPOINT 0 0 0 1 0 0 0
POINTS 1415
DATA ascii
-0.0095229996 0.0045779999 0.0094339997
-0.0093560005 0.001485 0.0094830003
-0.009447 -0.013371 0.008649
-0.0096089998 -0.01072 0.0085460003
-0.0085739996 -0.01653 0.0085460003
-0.0095539996 -0.0092879999 0.0066160001
-0.0093130004 -0.011362 0.0067090001
-0.0096169999 -0.0073830001 0.0064190002
-0.0087379999 -0.014792 0.00752
-0.0096359998 0.0057259998 0.0067449999
-0.0096420003 -0.0034070001 0.006784
-0.0096490001 -0.001493 0.0052470001
-0.0090389997 -0.0093080001 0.0049359999
-0.0089069996 -0.01051 0.0052379998
-0.0095509999 0.002532 0.0047559999
-0.0095300004 -0.0026670001 0.004615
-0.009292 0.00752 0.004801
-0.0094710002 0.0046089999 0.0045869998
-0.0089889998 -0.004586 0.003332
-0.020646 0.032416001 0.040952999
-0.016952001 0.032648001 0.040049002
-0.022785001 0.031353999 0.041182999
-0.013523 0.034733001 0.039625
-0.019319 0.031507999 0.040538002
-0.013463 0.033101998 0.038975999
-0.021299999 0.029337 0.040837999
-0.011586 0.033521 0.038468
-0.019765999 0.029154001 0.040380001
-0.015118 0.031073 0.038883999
-0.016879 0.029718 0.039336
-0.024653999 0.027349001 0.041292999
-0.021252001 0.027581999 0.040674001
-0.015619 0.029340999 0.038580999
-0.019595999 0.027488999 0.040149
-0.01331 0.029323 0.037151001
-0.018209999 0.028573001 0.039709002
-0.02679 0.025449 0.041379999
-0.018478001 0.026743 0.039599001
-0.024795 0.024512 0.041198
-0.014279 0.028302999 0.037409998
-0.01705 0.027106 0.038911998
-0.023479 0.023388 0.041049998
-0.025485 0.022638001 0.041271001
-0.017175 0.025336999 0.038722999
-0.021202 0.023285 0.040433001
-0.018524 0.024235001 0.039388001
-0.013073 0.026533 0.035714999
-0.011116 0.028298 0.034754999
-0.023135001 0.021167999 0.040987998
-0.014565 0.024765 0.036649
-0.011039 0.025374999 0.032499
-0.013023 0.024452999 0.034919001
-0.011643 0.023553001 0.032712001
-0.010959 0.023386 0.031282999
-0.010386 0.022670001 0.029592
-0.0096829999 0.023395 0.027310999
-0.0097599998 0.021491 0.026461
-0.0094590001 0.018499 0.013431
-0.023039 -0.0036220001 0.041377001
-0.021352001 -0.0034139999 0.041361
-0.018666999 -0.0034390001 0.041384999
-0.024506001 -0.003333 0.041384999
0.001297 0.0015219999 0.041338999
-0.024768 -0.0053960001 0.041363001
-0.021423001 -0.0045170002 0.041336998
-0.0090579996 0.015341 0.0086019998
-0.014666 -0.0034360001 0.041370999
-0.011478 -0.0048690001 0.040986001
-0.00063199998 -0.001726 0.041269999
-0.022283001 -0.00758 0.041377999
-0.020393999 -0.0072630001 0.041320998
-0.003361 -0.0032909999 0.041074999
-0.013052 -0.0051270002 0.041021999
-0.0090739997 0.013091 0.0069499998
-0.019494999 -0.0074450001 0.041260999
-0.0080660004 0.014026 0.005905
-0.0093660001 -0.0046990002 0.040858001
-0.023445999 -0.0088060005 0.041375
-0.00067699997 -0.0031300001 0.041060999
-0.010794 -0.0066840001 0.040369999
-0.014517 -0.0067030001 0.040885001
-0.019266 -0.0084060002 0.041149002
-0.0096190004 -0.0062859999 0.040408
-0.005446 -0.0047530001 0.040681001
-0.0068379999 -0.006145 0.040219001
-0.020559 -0.0095149996 0.041189
-0.026493 -0.011361 0.041395999
-0.0074399998 0.012525 0.0044849999
-0.015413 -0.0087169996 0.040523
-0.010232 -0.0075690001 0.039921999
-0.020763 -0.011463 0.041007001
-0.0047459998 0.012437 0.003456
-0.0072070002 -0.0076370002 0.039491002
-0.019365 -0.011512 0.040801998
-0.024478 -0.013457 0.041322
-0.008068 0.010444 0.003945
-0.016488001 -0.011588 0.040002
-0.015864 -0.010308 0.04016
-0.022746 -0.011575 0.041235998
-0.017270001 -0.012769 0.039953001
-0.014329 -0.011303 0.039262
-0.019410999 -0.013311 0.040599
-0.0066450001 0.0095520001 0.002575
-0.02438 -0.015376 0.041248001
-0.011447 -0.010589 0.038477
-0.021081001 -0.015532 0.040706001
-0.023574 -0.017436 0.040975001
-0.016675999 -0.014535 0.039251
-0.0042320001 0.0084290002 0.001706
-0.025288999 -0.017362 0.041258998
-0.011313 -0.012547 0.036970999
-0.021523001 -0.017495999 0.040649001
-0.0044720001 0.0067369998 0.001239
-0.013264 -0.014951 0.036743999
-0.017092001 -0.016864 0.038879
-0.019911001 -0.018474 0.040089998
-0.011359 -0.014534 0.03534
-0.023483001 -0.019559 0.040987
-0.027326999 -0.021198001 0.041329999
-0.026796 -0.022569999 0.041329999
-0.013617 -0.016589001 0.036274001
-0.018569 -0.019276001 0.039439999
-0.021441 -0.021335 0.040486999
-0.017193001 -0.019481 0.038679
-0.023515999 -0.022661 0.040876001
-0.0054520001 0.0035999999 0.00073999999
-0.011736 -0.016278001 0.034292001
-0.014844 -0.018466 0.037016999
-0.020025 -0.021671999 0.039937001
-0.012846 -0.017188 0.035211999
-0.013472 -0.018834 0.035583999
-0.017476 -0.021496 0.038663
-0.024722001 -0.024489 0.041198999
-0.020021999 -0.023271 0.039949
-0.026861999 -0.025521001 0.041315999
-0.012009 -0.018656 0.033642001
-0.015473 -0.021392001 0.037204999
-0.01746 -0.022631001 0.038663998
-0.022417 -0.024541 0.040773999
-0.0095410002 -0.018639 0.02538
-0.0095039997 -0.018595999 0.023565
-0.027496001 -0.035479002 0.041354001
-0.026719 -0.037312999 0.041395001
-0.024619 -0.040702 0.041412
-0.006447 -0.053505 0.041498002
0.0038069999 -0.032381002 0.035882
0.005628 -0.033349 0.036876999
0.0043330002 -0.031319998 0.034878001
0.0084699998 -0.031078 0.035590999
0.0091089997 -0.029586 0.034501001
0.0054429998 -0.029626001 0.032699
0.010894 -0.029175 0.035505999
0.012747 -0.028520999 0.036578
0.0074189999 -0.028735001 0.032334
0.0065580001 -0.028205 0.030813999
0.011257 -0.027598999 0.034651
0.0092599997 -0.027478 0.032357998
0.0089090001 -0.026949 0.031263001
0.011821 -0.025703 0.034147002
0.0071700001 -0.027032999 0.028876999
0.0098919999 -0.025502 0.031098001
0.0090229996 -0.025188999 0.028693
0.0085180001 -0.025274999 0.027427999
0.0072929999 -0.025467999 0.022686001
0.0085399998 -0.024305999 0.023396
0.0045949998 -0.021218 0.010854
0.0062810001 -0.018083001 0.0078670001
0.0062250001 -0.017054999 0.0069570001
0.005754 -0.0148 0.005078
0.0085629998 -0.014525 0.0075090001
0.005537 0.011179 0.036561999
0.0086850002 -0.010649 0.0053909998
0.0046600001 0.012585 0.034575999
0.0032230001 0.012519 0.034479
0.0072130002 0.012768 0.034921002
0.0046179998 0.01332 0.033463001
0.0086049996 0.013464 0.034651998
0.0064320001 0.013433 0.033647001
0.010611 0.014427 0.035094999
0.011984 0.014671 0.036107
0.011488 0.022828 0.032632001
0.010437 0.024806 0.031502999
0.010945 0.021469999 0.031431001
0.010814 0.022612 0.031229001
0.0093520004 0.025195001 0.029623
0.0086209998 -0.013799 0.033860002
0.0098510003 -0.014407 0.034265999
0.01181 -0.018564001 0.033553999
0.0056050001 -0.012543 0.034451
0.0092489999 -0.014927 0.032839999
0.0076759998 -0.014247 0.032141
0.009207 0.024183 0.027471
0.0095520001 0.021489 0.026637999
0.010426 -0.017550001 0.031401999
0.0092179999 0.023244999 0.025421999
0.0074209999 -0.014694 0.030661
0.0086289998 0.024625 0.025595
0.0031369999 -0.01366 0.031452
0.0046080002 -0.013714 0.031665999
0.010097 -0.01928 0.029471001
0.0094039999 0.02148 0.024569999
0.00051099999 -0.013518 0.031346001
0.0098670004 -0.020702999 0.028272999
0.0091509996 -0.016906001 0.028502
0.0047289999 -0.014275 0.029369
0.0091599999 0.022684 0.022551
0.0083760004 0.024591999 0.023444001
0.0034040001 -0.014313 0.028712001
0.0093139997 0.021458 0.021454001
-0.0015069999 -0.01406 0.029038999
0.0093900003 -0.018545 0.025325
0.0034020001 -0.014322 0.026492
0.0054270001 -0.014485 0.025397999
0.000665 -0.014203 0.027420999
0.0055490001 0.025459999 0.019327
0.003335 -0.014163 0.024658
0.0092129996 0.021392001 0.019312
0.0085100001 0.022484001 0.017422
0.0094029997 -0.019272 0.022544
0.002144 -0.01398 0.024089999
0.00060799997 -0.013911 0.024374001
0.007522 0.023383999 0.016551999
0.0086169997 -0.015667999 0.021393999
0.0093740001 -0.018718001 0.021543
0.0065529998 -0.013738 0.021284999
0.0081789996 0.022126 0.015694
0.0093299998 -0.017369 0.019478999
0.0023139999 -0.013475 0.022516999
0.001336 -0.01345 0.022693001
0.0089640003 0.020577 0.015514
0.008994 -0.015228 0.018546
0.0083109997 -0.013748 0.018289
0.0082489997 0.020765999 0.013511
0.0093499999 -0.017413 0.017398
0.009292 0.016541 0.011567
0.0089880005 -0.012365 0.014735
0.0075360001 -0.010189 0.015437
0.0093820002 0.015221 0.011502
0.0093240002 -0.012718 0.012705
0.0089400001 -0.0093459999 0.012521
0.0085300002 0.00137 0.010595
0.0093189999 -0.010652 0.011367
0.0092089996 0.01327 0.0085300002
0.0088910004 -0.0073060002 0.011484
0.0085310005 -0.0024999999 0.010716
0.0085469997 -0.00047699999 0.010502
0.0093409996 0.011481 0.0095830001
0.0092989998 -0.0086559998 0.010362
0.0088280002 -0.0045469999 0.010557
0.0088780001 0.014848 0.0083370004
0.0091580003 0.0025800001 0.0092669996
0.009145 -0.0014140001 0.0092639998
0.0090720002 -0.0024649999 0.0096070003
0.0090600001 0.011391 0.0067639998
0.0093660001 0.00058200001 0.0066960002
0.0092940005 0.0085239997 0.0066229999
0.0093569998 -0.0066200001 0.0075690001
0.0093099996 0.0047109998 0.0054299999
0.0093550002 -0.001309 0.006608
0.0093510002 -0.0046370002 0.00655
0.0092850002 -0.001542 0.0047220001
0.0092719998 0.00069399999 0.004644
0.0087620001 0.002629 0.0031959999
0.0085709998 0.0056150001 0.003329
0.027626 0.056853998 0.041466001
0.025658 0.056651998 0.041459002
0.025427001 0.055172998 0.041455999
0.023739999 0.055270001 0.041466001
0.022701001 0.056336999 0.041471001
0.026829001 0.054343 0.041455999
0.018619999 0.056871001 0.041482002
0.017752999 0.058114 0.041492
0.015465 0.055392999 0.041478001
0.014984 0.056533001 0.041485
0.021036001 0.054414 0.041475002
0.012599 0.056157 0.041489001
0.012756 0.054731999 0.04149
-0.01283 0.058249999 0.041514002
-0.011236 0.057289001 0.041510001
0.0070159999 0.056350999 0.041478001
0.024800999 0.052536 0.041462999
0.023159999 0.052875999 0.041469
0.0092869997 0.054834999 0.041483998
0.019692 0.053293001 0.041474
0.002659 0.056384001 0.041492999
0.0025879999 0.055339999 0.041496001
0.001162 0.054664999 0.041499
0.00081699999 0.056371 0.041503001
-0.01366 0.056674 0.041498002
0.010606 0.054483999 0.041485999
0.024894999 0.051431999 0.041452002
-0.001633 0.053493001 0.041503001
-0.018402001 0.054878999 0.041494001
-0.016690999 0.055564001 0.041492999
-0.017607 0.057229001 0.041503001
-0.018928999 0.05765 0.041506998
-0.030169001 0.058226999 0.041517999
-0.023569999 0.056478001 0.041503001
-0.023218 0.055160001 0.041503001
0.026828 0.050657999 0.041432001
0.01664 0.052763 0.041480001
0.0065759998 0.053346999 0.041499998
0.0024900001 0.052448999 0.041492999
0.019198 0.050629999 0.041455999
0.00097300002 0.052526999 0.041498002
0.00094599999 0.050997999 0.041491002
-0.027334001 0.05672 0.041508
-0.029121 0.057195 0.041508999
0.0090429997 0.052122001 0.041485999
-0.025113 0.058947001 0.041515999
-0.014363 0.055087999 0.041499
0.0048929998 0.051566001 0.041487999
0.020764001 0.049594998 0.041453999
0.013391 0.051449001 0.041475002
-0.026947999 0.054744001 0.041503999
-0.003177 0.053224999 0.041503999
-0.028186001 0.054322999 0.041501001
0.017431 0.050709002 0.041455001
0.0090089999 0.050964002 0.041476
-0.001264 0.050604999 0.04149
-0.019088 0.053045999 0.041503001
0.019222001 0.049151 0.041457001
0.014966 0.049187001 0.041466001
-0.030301999 0.054912001 0.041499
0.017447 0.049337 0.041460998
-0.020734999 0.053073 0.041505001
-0.0028530001 0.051189002 0.041496001
-0.032958999 0.053498998 0.041499
0.031259 0.047361001 0.041437998
-0.012981 0.053429998 0.041503999
0.033209 0.045768999 0.041411001
-0.022833001 0.053165 0.041501001
0.0065060002 0.049191002 0.041476
0.004673 0.049454 0.041483
0.00035399999 0.048822999 0.041498002
-0.0086230002 0.050636999 0.041487999
-0.015349 0.051463999 0.041492999
-0.024933999 0.053296 0.041501999
-0.0057939999 0.05094 0.04149
-0.013376 0.049408998 0.041492
-0.012302 0.050654002 0.041487999
0.025415 0.047201 0.041446999
-0.0069829999 0.051525999 0.041491002
-0.017096 0.051321 0.041496001
-0.016683999 0.052786 0.041499
0.0028299999 0.048686001 0.041494001
0.023388 0.04713 0.041448001
-0.019269999 0.050128002 0.041491002
-0.027443999 0.053245001 0.041498002
-0.028697999 0.052896 0.041494001
0.018596999 0.047646001 0.041453
0.025589 0.045341 0.041409001
0.016608 0.047626 0.041467998
0.014752 0.047366001 0.041469
0.0067810002 0.047377001 0.041487999
0.013235 0.046852 0.041471999
-0.003088 0.048870999 0.041492
0.030529 0.044100001 0.041404001
0.027365999 0.045561001 0.041418999
0.033224002 0.043455999 0.041413002
0.023619 0.045132998 0.041413002
0.034789 0.043469001 0.041409001
-0.0010620001 0.048429001 0.041496001
-0.011466 0.048654001 0.041501999
0.018432001 0.045352999 0.041421998
-0.014944 0.049885999 0.04149
-0.033239 0.049336001 0.041478001
-0.033349 0.050515998 0.041476
0.026614999 0.043320999 0.041420002
0.025061 0.043283999 0.041420002
0.016462 0.044782002 0.041418999
0.003614 0.046720002 0.04149
0.0011230001 0.046247002 0.041491002
-0.026164999 0.048774 0.041485
-0.031057 0.048464 0.041485999
-0.001042 0.046831999 0.041499998
0.00053199998 0.044891 0.041405
-0.0068399999 0.048700999 0.041492
-0.023530999 0.049125999 0.041491002
-0.028480001 0.04882 0.04149
0.01515 0.043086 0.041423999
0.032678001 0.041117001 0.041372001
-0.0045090001 0.044778999 0.041343
-0.016868001 0.047458999 0.041485
-0.015255 0.047359999 0.041489001
0.036729999 0.040727001 0.041363001
-0.0072840001 0.045711 0.041437998
0.024583001 0.041134998 0.041382998
-0.013311 0.045494001 0.041464999
-0.032942999 0.046360999 0.041467
0.016801 0.042497002 0.041414998
-0.030927001 0.046898998 0.041480999
0.02922 0.041384999 0.041374002
0.010641 0.04349 0.041375
-0.025157999 0.047524001 0.041492999
0.028589001 0.042925 0.041405
0.0073899999 0.044372 0.041375998
0.0027389999 0.043097001 0.041246001
-0.003213 0.044569001 0.041349001
0.012555 0.042557001 0.041366
0.026668999 0.041115999 0.041379001
-0.0093750004 0.044613998 0.041386001
-0.016620999 0.045233998 0.041455001
-0.035100002 0.045625001 0.041459002
-0.034552 0.047177002 0.041474
0.031551 0.039089002 0.041359998
0.018542999 0.041271001 0.041379999
-0.010599 0.044358999 0.041379001
-0.021403 0.045329001 0.041453999
-0.029586 0.045506999 0.041446
-0.02318 0.045759 0.041467998
-0.014318 0.044826999 0.041453999
-0.016549001 0.043428 0.041474
-0.024758 0.044794001 0.041457999
0.028666999 0.03915 0.04135
0.025389001 0.039654002 0.041363999
0.010639 0.041063 0.041074
-0.011138 0.043407001 0.041416999
0.014682 0.041297 0.041313
-0.00544 0.042700998 0.041170001
-0.015222 0.043428998 0.041474
-0.031197 0.045141999 0.041451
0.027698999 0.038757 0.041359
-0.018471999 0.043850999 0.041473001
-0.020551 0.042718001 0.041471999
0.019376 0.039487999 0.041310001
0.006786 0.041285001 0.040922001
-0.0094379997 0.042668 0.041262001
0.017293001 0.039386999 0.041216001
0.015361 0.039452001 0.041152
-0.0134 0.042592999 0.041441001
-0.001332 0.041347999 0.040858001
-0.025338 0.04276 0.041469999
-0.032467 0.044482999 0.04146
-0.037218001 0.044693999 0.041457999
0.0023749999 0.041551001 0.040920001
-0.032744002 0.042773999 0.041467
-0.034743 0.043607 0.041474
0.01065 0.039241001 0.040628001
0.0044809999 0.041088 0.040817
-0.026927 0.044496998 0.041455001
0.026389999 0.037066001 0.041373
0.025087001 0.037494998 0.041370999
-0.0088820001 0.04104 0.040964
-0.019192999 0.041522 0.041462
-0.022751 0.042888001 0.041467998
0.036706999 0.036169998 0.041368
0.012808 0.039664 0.040956002
-0.024654999 0.041276 0.041450001
0.020693 0.037491001 0.041352
0.036307 0.035038002 0.041373
0.028991999 0.036371 0.041367002
-0.030621 0.042548999 0.041459002
0.022659 0.036851 0.041382
-0.021379 0.041147999 0.041439999
0.032814998 0.034451999 0.041373
0.0166 0.037438001 0.041005999
0.0048929998 0.038699999 0.040043
0.0060239998 0.038252 0.039925002
0.00022 0.038137998 0.039707001
0.0011690001 0.039647002 0.040314998
-0.0045380001 0.039526001 0.040353
0.027584 0.034841999 0.041373
0.019335 0.036433 0.041212
-0.037427001 0.043116 0.041469
0.038938001 0.033193 0.041366
0.013276 0.036653999 0.040325001
0.0085479999 0.038481999 0.040206
-0.033387002 0.041489001 0.041451
0.022829 0.035367999 0.041352998
-0.022685001 0.041483998 0.041444998
-0.011306 0.03951 0.040794
-0.014676 0.039618 0.041122001
0.015227 0.036415 0.040633999
0.010787 0.036601 0.039820999
0.0029170001 0.038745999 0.039988998
-0.0068930001 0.038316999 0.039985001
0.040181 0.033071999 0.041359
0.039205998 0.031392999 0.04135
0.021614 0.035204001 0.041301001
-0.015641 0.040591002 0.041315001
-0.027299 0.039264999 0.041428
-0.017325999 0.038582999 0.041237999
0.014913 0.034678999 0.040137999
-0.013246 0.037487 0.040479001
-0.022766 0.038940001 0.041432999
-0.038764 0.040849999 0.041448001
-0.031252 0.038823001 0.041434001
-0.030610999 0.040606 0.041441999
-0.036894999 0.040904 0.041444
0.036401 0.033222001 0.041370001
-0.00844 0.036846999 0.039478999
-0.0067409999 0.037176002 0.039462
-0.032605998 0.038784999 0.041432001
0.020667 0.032568999 0.041072
0.0087850001 0.035326999 0.038787998
-0.001465 0.036929 0.039156001
-0.01661 0.037374001 0.040966
-0.019424999 0.037468001 0.041214999
-0.029004 0.038695998 0.041430999
0.012421 0.035044 0.039577998
0.0069220001 0.035755999 0.038745001
-0.020664999 0.038346998 0.041407
0.036382999 0.030536 0.041358002
0.022593999 0.032676999 0.041308001
0.0053389999 0.035535 0.038467001
0.027367 0.030872 0.041365001
-0.00066299998 0.035526 0.038247
-0.003299 0.036642 0.039053001
-0.031413998 0.036556002 0.041420002
0.034894999 0.029459 0.041361999
0.030892 0.030919001 0.041361999
-0.025472 0.036536001 0.041416999
0.001287 0.035565998 0.038274001
0.032529 0.030807 0.041358002
0.02901 0.030479001 0.041368
-0.0047010002 0.035347998 0.038238
-0.021260001 0.036557999 0.041354001
0.024767 0.031417999 0.041340999
0.024529999 0.032664999 0.041359998
0.016023999 0.032418001 0.039873
-0.037438001 0.038605999 0.041428
0.037098002 0.028607 0.041359
0.0067639998 0.034226999 0.037746001
-0.00076600001 0.034255002 0.037306
-0.039336 0.038677 0.041432001
0.013324 0.032517001 0.038872
0.009571 0.032556999 0.037280001
0.0094990004 0.033893999 0.038130999
0.0034670001 0.034366999 0.037528001
-0.025485 0.034874 0.041405
-0.023290999 0.036357999 0.041413002
-0.040979002 0.037351999 0.041427001
-0.039666999 0.037027001 0.041423999
0.022779001 0.030676 0.041200001
-0.015426 0.035645999 0.040399
-0.026741 0.035456002 0.041375
0.0053039999 0.034168001 0.037485
-0.0081160003 0.034373999 0.037962001
-0.0092230001 0.035367999 0.038807001
-0.027852001 0.036805999 0.041414998
-0.037193 0.036757998 0.041416001
0.038901001 0.028479001 0.041359998
0.017217999 0.030757001 0.039895002
0.00079199998 0.033420999 0.036575999
-0.042433001 0.035452999 0.041407
-0.041285001 0.034228999 0.041409001
0.019665999 0.029569 0.040532999
0.021493001 0.029184001 0.040945001
-0.023512 0.034619998 0.041372001
-0.02853 0.035206001 0.041402999
-0.035287999 0.035317 0.041402999
0.027451999 0.02884 0.041370001
0.014946 0.031548999 0.039177001
0.01065 0.032457002 0.037680998
0.0053699999 0.032965001 0.036515001
-0.038748998 0.035478 0.041402001
0.041446 0.028306 0.041361999
0.039041001 0.026276 0.041336998
0.037372001 0.026526 0.041343998
0.024622999 0.028620999 0.041335002
0.029239999 0.027309 0.041398998
-0.0065489998 0.034334999 0.037684999
0.010788 0.031486999 0.037138999
0.036857001 0.024861 0.041338
0.0034169999 0.033085998 0.036435999
-0.030453 0.032889001 0.041398
-0.030156 0.035227999 0.041407999
-0.0046509998 0.033172 0.036566
0.000566 0.032242998 0.035489
-0.026583999 0.032880001 0.041416001
0.024757 0.027449001 0.041363999
-0.025088999 0.032520998 0.041395001
-0.032703999 0.034752 0.041413002
-0.039276998 0.033211999 0.041411001
-0.001271 0.032391001 0.035684001
-0.025385 0.030671 0.041373
0.039425999 0.024929 0.041326001
0.0054899999 0.031229001 0.034759998
-0.036734998 0.033273 0.041414
0.026898 0.025371 0.041429002
-0.001232 0.031406999 0.034557
-0.00342 0.031477999 0.034766998
-0.041379999 0.032869 0.041402999
0.0033189999 0.031440001 0.034736
-0.034770001 0.031684 0.041407999
-0.027104 0.030841 0.041404001
0.03246 0.024757 0.041379999
0.021400001 0.026614999 0.040764999
-0.028808 0.033232 0.041395001
-0.032648001 0.032490999 0.041407999
0.02534 0.024759 0.041384999
-0.001364 0.030679001 0.033647999
-0.028904 0.030435 0.041382
0.040429998 0.023173001 0.041338999
0.03283 0.022919999 0.041379001
-0.026866 0.02871 0.041432001
-0.041680999 0.031105001 0.041398
0.001424 0.030462001 0.033379
0.040764999 0.020783 0.041322999
0.021153999 0.024381001 0.040600002
-0.037007999 0.03066 0.041407999
-0.039976001 0.030889999 0.041402001
0.030508 0.023591001 0.041400999
0.001302 0.029246001 0.031369999
-0.041080002 0.02942 0.041404001
0.024786999 0.021395 0.041331999
-0.034643002 0.028509 0.041405
-0.042966999 0.030863 0.041393001
-0.043396 0.029465999 0.041391
-0.027286001 0.027539 0.041423999
-0.032682002 0.028785 0.041402001
-0.033218998 0.027727 0.041402999
0.029227 0.020995 0.041395001
0.021288 0.023204001 0.040623002
-0.041274 0.027520999 0.041395001
0.039260998 0.020883 0.041329999
-0.028712999 0.026830999 0.041393001
-0.028791999 0.028736999 0.041395001
-0.043173 0.027848 0.041393001
0.03923 0.019345 0.041329
0.030859999 0.021074999 0.041379999
0.029175 0.019339001 0.041389
-0.036843002 0.026862999 0.041395999
-0.036667001 0.028465001 0.041404001
-0.030692 0.029234 0.041395001
-0.044241 0.026617 0.041384
-0.031241 0.026571 0.041391999
-0.039962001 0.026485 0.041391999
0.02472 0.019416001 0.041343
0.00080400001 0.028331 0.029367
0.021302 0.02063 0.040677998
-0.037140999 0.025007 0.041388001
-0.038662001 0.025175 0.041386999
0.039404001 0.016779 0.041331999
0.034572002 0.019253001 0.041361999
-0.040284999 0.02472 0.041382
-0.035076998 0.02458 0.041381001
-0.032699 0.024940999 0.041382
0.032499999 0.017276 0.041374002
0.000558 0.027992001 0.028371001
0.032506999 0.018909 0.041384999
0.040736999 0.016638 0.04132
-0.033367999 0.023111001 0.041379999
0.027757 0.016619001 0.041377999
-0.001208 0.027406 0.026485
-0.0032870001 0.027319999 0.026533
-0.028235 0.022575 0.041377001
-0.031289 0.023151999 0.041373
0.021303 0.018665001 0.040775999
-0.00074599998 0.027184 0.025364
0.039514001 0.014877 0.041296002
-0.042902999 0.022898 0.041361999
0.024666 0.01668 0.041347999
-0.003275 0.027112 0.025497001
0.037115 0.014655 0.041294001
0.033084001 0.014661 0.041329999
-0.0034970001 0.026702 0.023286
-0.029286999 0.020796999 0.041366
-0.03675 0.021778001 0.041368
-0.037633002 0.022789 0.041377999
0.0027369999 0.026420999 0.021682
0.033222999 0.013385 0.041359
0.024645001 0.014431 0.041331001
-0.0045179999 0.026316 0.021551
0.036811002 0.012576 0.041359998
0.035268001 0.012786 0.041368
0.031200999 0.012797 0.041382998
-0.002358 0.026404001 0.02141
0.029536 0.013499 0.0414
0.023334 0.013381 0.041297998
-0.00020900001 0.026091 0.019877
-0.043363001 0.021524999 0.041354999
-0.035151001 0.019391 0.041377001
-0.034976002 0.020377999 0.041368999
-0.039177001 0.020608 0.041365001
0.026729001 0.012665 0.041379001
-0.031801999 0.020616001 0.041367002
-0.0021599999 0.026035 0.019960999
-0.040536001 0.020733999 0.041361
-0.031695001 0.018522 0.041388001
-0.0287 0.018611001 0.041382
-0.037374999 0.01873 0.041386999
0.034559 0.01077 0.041338999
-0.04321 0.018816 0.041365001
-0.041083999 0.018549999 0.041379001
0.027602 0.010882 0.041367002
-0.031339999 0.016805001 0.041359998
0.03046 0.010578 0.041354999
0.022567 0.011309 0.041347001
0.002443 0.025188001 0.017502001
-0.033124998 0.017441999 0.041354999
0.024486 0.010788 0.041382998
0.036490001 0.0095239999 0.041343998
-0.001254 0.024961 0.016658001
-0.029244 0.015535 0.041336998
-0.041536 0.016989 0.041356001
0.001186 0.024369 0.015491
0.000764 0.024925999 0.016607
0.026548 0.0091199996 0.041354001
-0.00075200002 0.024503 0.015667999
-0.031614002 0.014773 0.041349001
-0.038355 0.017512999 0.041375998
-0.042890999 0.016566999 0.041345
-0.043326002 0.015406 0.041322
0.039076 0.0066559999 0.041359998
0.036846001 0.0073219999 0.041366
0.024734 0.008684 0.041363001
0.041191999 0.0066780001 0.041358002
0.042403001 0.0065589999 0.041354999
0.023125 0.0094839996 0.041352998
0.029292 0.0085429996 0.041354999
0.034605 0.0072329999 0.041367002
-0.040807001 0.014765 0.041338999
0.0031379999 0.023755001 0.014518
0.031452999 0.0072920001 0.041377999
0.00048700001 0.023318 0.01337
0.031289998 0.00477 0.041347001
-0.031270999 0.013168 0.041398
-0.042461999 0.013499 0.041370001
0.034527 0.0052720001 0.041351002
-0.02926 0.012595 0.041402001
0.022772999 0.0073159998 0.041404001
-0.0013980001 0.022844 0.012744
0.024584999 0.0065810001 0.0414
-0.034278002 0.012712 0.041395999
-0.038768001 0.012614 0.041393999
0.026295001 0.0053249998 0.041368999
-0.001071 0.021765999 0.011206
-0.040346 0.012753 0.041386001
0.042112 0.0047189998 0.041331001
0.042036001 0.0030439999 0.041340999
0.030564999 0.0033209999 0.041354001
-0.037204001 0.011361 0.041390002
0.040405001 0.003216 0.041340999
0.022832001 0.0046029999 0.041365001
0.00086799997 0.020429 0.0095290001
0.000337 0.021407999 0.01065
-0.030765999 0.010569 0.041379999
-0.037276998 0.0096920002 0.041375998
-0.039273001 0.010535 0.041368
-0.042736001 0.010692 0.041377999
-0.040723 0.010597 0.041372001
-0.02918 0.0094539998 0.041370999
-0.033293001 0.010652 0.041386999
0.039228 0.001244 0.041338
0.033415999 0.001238 0.041352998
0.040842999 0.000443 0.041333001
0.029168 0.0025309999 0.041367002
0.025704 0.002685 0.041372001
-0.027342999 0.0072860001 0.0414
0.027167 0.001388 0.041366
0.041565999 -0.001098 0.041333001
0.028881 0.00054799998 0.041351002
0.025477 0.001253 0.041365001
-0.025497001 0.0058869999 0.041386001
-0.029317999 0.0069300001 0.041398
-0.043095998 0.0084309997 0.041373
0.00058599998 0.018479001 0.0074240002
0.035080999 -0.00053600001 0.041338
0.032336999 -0.001263 0.041345
0.030725 -0.00056199997 0.041347999
-0.040465999 0.0072610001 0.041377999
0.029177999 -0.00080500002 0.041340001
0.022963 -0.00036999999 0.041352
0.001698 0.017759001 0.006885
0.041609999 -0.002688 0.041352
0.037404999 -0.0025259999 0.041351002
0.032853 -0.0034759999 0.041338
0.038550999 -0.001484 0.041342001
0.026647 -0.001256 0.041342001
-0.030717 0.0045889998 0.041373
-0.0014590001 0.016946999 0.0062119998
0.035254002 -0.0034139999 0.041340999
0.022519 -0.0026529999 0.041379999
-0.0024920001 0.016086999 0.0055800001
0.027216 -0.0024280001 0.041373
0.030720999 -0.0032200001 0.041352
-0.038654 0.0035379999 0.041374002
-0.040188 0.0024389999 0.041382
-0.030693 0.0024989999 0.041379999
0.025347 -0.0043930002 0.041340001
0.041034002 -0.0044030002 0.041333001
0.037232 -0.0050829998 0.041329
0.034899998 -0.005814 0.041338999
0.027601 -0.0048409998 0.041333999
0.039120998 -0.0051199999 0.041329999
0.038718 -0.0065609999 0.041343
0.032887001 -0.0056309998 0.041331999
0.029285001 -0.0045340001 0.041331999
-0.031238999 0.0014759999 0.041379001
-0.033372998 0.002413 0.041377001
0.033484001 -0.0067599998 0.041340999
0.00054500002 0.014678 0.004429
-0.035546001 0.001359 0.041379001
0.0025609999 0.013911 0.0040950002
-0.032804001 0.000485 0.041368999
-0.027445 -0.00058300002 0.041354001
-0.028715 0.001115 0.041377001
-0.037312001 0.0025569999 0.041377999
-0.001243 0.014657 0.0044689998
0.030594001 -0.00666 0.041338999
-0.027145 0.0013520001 0.041379999
0.034561999 -0.0072909999 0.041347999
-0.039342999 0.000459 0.041363001
-0.033535998 -0.00078399997 0.041349001
0.0047289999 0.01249 0.0034769999
0.032634001 -0.0094100004 0.041327
-0.029421 -0.001666 0.041377999
-0.027733 -0.0032520001 0.041377001
0.026538 -0.0091319997 0.041328002
0.035631001 -0.0092230001 0.041331999
-0.033558 -0.0033140001 0.041363001
0.023433 -0.0091819996 0.041327
-0.037310999 -0.0032279999 0.041372001
-0.041638002 -0.0032259999 0.041365001
0.035188999 -0.010716 0.041333001
-0.035252001 -0.0041769999 0.041365001
0.037610002 -0.010931 0.041340001
0.035096999 -0.012392 0.041354001
-0.0034479999 0.01147 0.002877
0.037395999 -0.0093130004 0.041331001
0.030412 -0.011179 0.041333999
0.032591 -0.010922 0.041333999
-0.039407 -0.0047749998 0.041367002
0.025669999 -0.011103 0.041333999
0.00088599999 0.0099590002 0.002012
-0.001837 0.0098590003 0.002016
0.033270001 -0.013434 0.041354001
0.023448 -0.012591 0.041315999
0.0023089999 0.008618 0.001579
-0.034538001 -0.0069929999 0.041366
0.025215 -0.012722 0.041347001
-0.00078100001 0.0085260002 0.001403
0.031468 -0.012979 0.041354999
-0.026693 -0.0073250001 0.041365001
-0.036835998 -0.0052709999 0.041370001
-0.043205 -0.0066889999 0.041367002
0.037184 -0.01515 0.041338999
0.036639001 -0.013289 0.041345999
0.00063600001 0.0076640001 0.001145
-0.037103999 -0.0073480001 0.041377001
-0.039331 -0.0066869999 0.041377999
-0.027465001 -0.0089330003 0.041356001
0.0046580001 0.0066109998 0.001137
0.035695001 -0.015486 0.041338999
-0.0026449999 0.0067670001 0.0011080001
-0.041513 -0.006701 0.041377001
0.038476001 -0.01548 0.041336
0.022645 -0.015549 0.041110002
-0.00064500002 0.0067289998 0.00096500001
0.043032002 -0.01545 0.041347001
0.043324001 -0.016638 0.041349001
0.040906001 -0.017219 0.041345999
0.038743 -0.016604999 0.041333999
0.025365001 -0.01471 0.041338
0.00242 0.0066749998 0.001024
-0.034517001 -0.0088229999 0.041367002
0.003481 0.0052379998 0.000802
0.042419001 -0.018647 0.041338
-0.038557999 -0.0082790004 0.041374002
-0.032391999 -0.0092489999 0.041358002
0.029128 -0.01835 0.041370999
0.029221 -0.016393 0.041379001
-0.036520001 -0.0097070001 0.041352998
-0.00063999998 0.0046930001 0.00054600002
-0.030777 -0.010551 0.041356001
0.026405999 -0.015512 0.041368999
0.000787 0.0045929998 0.000504
-0.043255001 -0.0094130002 0.041351002
0.039213002 -0.018750999 0.041328002
0.040644001 -0.018502001 0.041336
0.034639999 -0.018852999 0.041324001
0.022803999 -0.017013 0.041103002
-0.034545001 -0.010461 0.041367002
-0.043143 -0.011113 0.041379001
0.037156001 -0.019034 0.041324999
0.041336998 -0.020602999 0.041319001
-0.041170999 -0.010902 0.041372001
0.035161 -0.020496 0.041322999
-0.035794001 -0.012794 0.041377001
-0.036876 -0.011613 0.041377999
0.037485 -0.021406 0.041331001
0.039329 -0.020726999 0.04132
-0.038281001 -0.012345 0.041375
-0.029267 -0.013153 0.04135
-0.030777 -0.012917 0.041361999
0.031122001 -0.019702001 0.041345
-0.032685999 -0.013525 0.041370001
0.022844 -0.018541999 0.041058
-0.042989999 -0.012354 0.041379001
-0.034497 -0.014931 0.041359
-0.036899999 -0.013252 0.041377999
-0.041535001 -0.013169 0.041382
0.0032009999 0.000688 0.00024600001
0.025286 -0.021367 0.041317001
0.023700999 -0.020698 0.041131999
-0.027217999 -0.015308 0.041347001
0.032767002 -0.021369001 0.041345
0.036738999 -0.022655999 0.041345
0.028698999 -0.021222999 0.041356001
-0.028744999 -0.015575 0.041329
0.034775 -0.022848001 0.041345
0.026869999 -0.021567 0.041359998
-0.031199999 -0.016372001 0.041345999
-0.032717999 -0.016979 0.041345999
-0.035177 -0.016161 0.041352998
-0.036651 -0.015348 0.041359
-0.038771 -0.016875001 0.041352998
-0.038819999 -0.014419 0.041367002
0.034628998 -0.024639999 0.041343998
0.031663999 -0.0228 0.041365001
0.021201 -0.022668 0.040497001
-0.037029002 -0.017145 0.04135
0.040530998 -0.025079999 0.041329
0.028494 -0.023149 0.041368999
-0.029684 -0.017269 0.041326001
0.022953 -0.023107 0.041007001
0.033333998 -0.024599001 0.041359998
0.00254 -0.003308 0.00041099999
0.001466 -0.0035379999 0.00036000001
0.024608999 -0.024673 0.041276999
0.044032998 -0.025516 0.04132
0.029511999 -0.025446 0.041354001
0.033486001 -0.026597001 0.041333999
0.026425 -0.025342001 0.041382
-0.039032999 -0.018379999 0.041342001
-0.030771 -0.018559 0.04132
-0.039418999 -0.02052 0.041331999
0.021396 -0.024649 0.040608
0.041265 -0.029441999 0.041340001
0.041313998 -0.027650001 0.041345
0.030687001 -0.026544999 0.041354999
-0.034347001 -0.020997999 0.041328002
-0.041400999 -0.019384 0.041333999
-0.035126001 -0.019103 0.041335002
0.024586 -0.027206 0.041294999
-0.029417999 -0.021268999 0.041306999
-0.030975999 -0.021165 0.041315001
-0.041485 -0.021094 0.041338
0.022965999 -0.027674999 0.041104
0.022832001 -0.028613999 0.041111
0.038559999 -0.029378001 0.041358002
0.037408002 -0.029244 0.041351002
0.030765999 -0.028690999 0.041359
0.032907002 -0.029606 0.041354999
-0.032926999 -0.022593001 0.041331999
-0.038996998 -0.022686001 0.041345999
0.026613999 -0.028860001 0.041354001
-0.043193001 -0.023248 0.041345
0.02935 -0.028862 0.041356001
0.027163999 -0.030774999 0.041335002
0.020517999 -0.029322 0.040668
-0.040438 -0.023171 0.041343
0.031191999 -0.030663 0.041347999
0.032524999 -0.030807 0.041342001
-0.031415999 -0.024954 0.041322
0.03466 -0.031282 0.041343
0.034628 -0.033360001 0.041361999
-0.033532001 -0.024927 0.041336998
-0.042978 -0.024563 0.041347001
-0.040791001 -0.025424 0.041340999
0.030864 -0.033229999 0.041359
0.02451 -0.031235 0.041310001
-0.034653001 -0.025271 0.041340999
0.033071999 -0.033403002 0.041356999
-0.033576 -0.027496999 0.041352998
-0.035284001 -0.027291 0.041354999
0.021275001 -0.031045999 0.040982001
-0.028759999 -0.026503 0.041324001
0.036782999 -0.034825999 0.041361
0.036702 -0.033620998 0.041359
0.028727001 -0.032703999 0.041347999
-0.031184999 -0.026939999 0.041338
0.027550001 -0.032809999 0.041347999
0.024798 -0.032737002 0.041329999
0.023445001 -0.033188999 0.041312002
-0.029126 -0.028774999 0.041342001
-0.031223999 -0.028558001 0.041352
-0.040679 -0.027124001 0.041354999
0.026312999 -0.034880999 0.04135
-0.038716 -0.02469 0.041340999
0.028914999 -0.035643 0.041359998
0.023569999 -0.034685999 0.041336
0.036874998 -0.036497999 0.041367002
-0.038497001 -0.027155001 0.041352998
0.021369999 -0.035123002 0.041267999
-0.042862002 -0.030533001 0.041354999
-0.041687999 -0.031226 0.041363999
0.035360001 -0.03723 0.041379001
-0.042946 -0.029185999 0.041354001
0.027423 -0.037209999 0.041379999
-0.028674999 -0.030762 0.041340001
-0.030771 -0.030529 0.041354999
0.030366 -0.036433998 0.041367002
-0.032701999 -0.030508 0.041352
0.033082999 -0.037395999 0.041368999
-0.038725 -0.029433999 0.04135
-0.03743 -0.029070999 0.041356001
0.035110999 -0.041191 0.041386999
-0.035664 -0.032986 0.041373
-0.036798999 -0.032430999 0.041370001
0.026921 -0.038456999 0.041397002
0.025206 -0.038582999 0.041397002
-0.039710999 -0.033126999 0.041370999
0.029321 -0.038803998 0.041379999
-0.034322999 -0.031339999 0.041352
-0.036580998 -0.031477999 0.041359998
-0.041561 -0.033096001 0.041370999
0.024606001 -0.041126002 0.041386001
-0.039625 -0.034919001 0.041379001
-0.042778 -0.032724001 0.041370001
0.027246 -0.041955002 0.041386999
-0.033319999 -0.035354 0.041377999
0.029201999 -0.040479001 0.041381001
-0.031146999 -0.035144001 0.041368999
-0.032611001 -0.036908001 0.041386999
-0.0427 -0.035170998 0.041374002
-0.035604998 -0.036506001 0.041382998
-0.037372001 -0.035464998 0.041375
0.031246001 -0.042851999 0.041395001
0.030352 -0.044989001 0.041423999
0.026648 -0.043225002 0.041395001
-0.029846 -0.035643 0.041375
0.025155 -0.043485999 0.041400999
0.023566 -0.043108001 0.041398
-0.041244999 -0.035466 0.041375998
0.032761 -0.044516999 0.041407999
0.029023999 -0.042943001 0.041397002
-0.031298 -0.037404999 0.041398998
0.029111 -0.044757001 0.041416999
0.023523999 -0.044574 0.041413002
0.025254 -0.04583 0.041437998
-0.039133001 -0.036761001 0.041390002
-0.040789001 -0.037420999 0.041393001
-0.028099 -0.039110001 0.041405998
-0.028333999 -0.040660001 0.041414998
0.029116999 -0.047093 0.041455001
0.027091 -0.046448998 0.041450001
0.019516001 -0.045405999 0.041421
0.022609999 -0.046604 0.041452002
0.017306 -0.045341 0.041423999
-0.026815001 -0.040548 0.041413002
0.021165 -0.044668 0.041409001
0.027489999 -0.048349001 0.041462
0.016639 -0.046895001 0.04146
0.028599 -0.049024999 0.041467
0.020956 -0.046890002 0.041453999
0.019135 -0.047093 0.041459002
0.014896 -0.046401002 0.041453999
0.011078 -0.047253001 0.041466001
0.013438 -0.046629999 0.041448001
0.01501 -0.044498999 0.041391999
-0.032325 -0.041552 0.041418001
-0.031351998 -0.040964 0.041414
0.024700999 -0.047354002 0.041453999
0.0090640001 -0.046771999 0.041444998
-0.025278 -0.043315999 0.04143
0.01846 -0.049520999 0.041471001
-0.027019 -0.043327 0.041423999
0.012896 -0.048760999 0.041466001
0.023084 -0.049745999 0.041471999
0.020742999 -0.048746999 0.041469999
0.014492 -0.0493 0.041471001
-0.023348 -0.044569001 0.04143
-0.023189001 -0.043497998 0.041425001
-0.025263 -0.045628998 0.041448001
-0.0093090003 -0.046551 0.041441001
-0.028697999 -0.043621998 0.041423
-0.027411001 -0.044546999 0.04143
0.020198001 -0.050758999 0.041483
0.016619001 -0.051286001 0.041480999
0.015307 -0.051068 0.041482002
0.012987 -0.051033001 0.041480001
0.022701001 -0.051093999 0.041489001
0.00096500001 -0.048696 0.041475002
-0.014795 -0.046765 0.041450001
-0.030687001 -0.045626 0.041444998
-0.035241 -0.045487002 0.041446
-0.030576 -0.046985 0.041464001
0.002509 -0.05116 0.041478999
0.0033420001 -0.049578 0.041473001
-0.00074599998 -0.048503999 0.041483
-0.01912 -0.04659 0.041455999
-0.025405999 -0.046769001 0.041460998
0.023003999 -0.052551001 0.041503999
0.01141 -0.050838001 0.041473001
0.018843999 -0.052671999 0.041499
-0.033279002 -0.047173999 0.041464999
0.015327 -0.052749999 0.041492999
0.0055829999 -0.050884001 0.041471999
0.005442 -0.048599999 0.041462999
-0.01472 -0.050377999 0.041475002
-0.001557 -0.051144 0.041478999
-0.011052 -0.048594002 0.041464999
-0.021594999 -0.046882 0.041464001
-0.020818001 -0.049415 0.041482002
-0.023035999 -0.046496 0.04146
-0.022792 -0.049745999 0.041483998
-0.032566 -0.048854999 0.041478999
-0.031358998 -0.048569001 0.041480999
-0.024944 -0.048422001 0.041473001
-0.024758 -0.050639998 0.041483998
-0.017044 -0.049155001 0.041469
-0.018851001 -0.049077 0.041476
0.000917 -0.051768001 0.041485
-0.0094630001 -0.050923999 0.041480001
-0.027466999 -0.050872002 0.041485
-0.027597001 -0.049369998 0.041476998
-0.010732 -0.051486999 0.041485
-0.026496001 -0.046879001 0.041459002
0.022635 -0.05483 0.041510001
0.021702999 -0.053008001 0.041506
-0.022671999 -0.051091999 0.041485999
-0.021400001 -0.050478999 0.041480001
0.021128001 -0.055381 0.041513
0.011472 -0.053078 0.041501999
0.01651 -0.054818001 0.041508999
-0.013212 -0.051357999 0.041480999
-0.013307 -0.053183999 0.041503999
0.024606001 -0.055197999 0.041505001
-0.0052590002 -0.052466001 0.041494999
-0.015197 -0.052455001 0.041499
-0.011527 -0.052561 0.041499998
-0.032733001 -0.050517999 0.041480001
-0.010644 -0.054267999 0.041506998
-0.031408001 -0.051290002 0.041494001
-0.025488 -0.052994002 0.041506998
-0.026631 -0.052871998 0.041503999
0.019431001 -0.056795999 0.041519001
-0.0091690002 -0.053304002 0.041503001
-0.019494999 -0.052671 0.041501001
-0.020401999 -0.052692998 0.041501001
-0.023306999 -0.053243 0.041501999
-0.022642 -0.054563999 0.041510001
-0.028856 -0.051272001 0.041492
-0.029155999 -0.052538 0.041499998
-0.016868001 -0.055218 0.041508
-0.013405 -0.054931998 0.041506
-0.030572001 -0.052568 0.041499998
-0.015084 -0.054538 0.041506
0.017019 -0.059241001 0.041524999
0.01726 -0.060552999 0.041529
-0.014779 -0.056620002 0.041508
-0.021468 -0.05449 0.041510999
-0.029154999 -0.055326 0.041508
-0.019548001 -0.057494 0.041524999
-0.021139 -0.057252001 0.041528001
-0.025475999 -0.055481002 0.041513
-0.017386001 -0.056809001 0.041517999
-0.026806001 -0.055172 0.041508999
-0.022516999 -0.057138 0.041524999
-0.019472999 -0.058915 0.041533001
-0.021218 -0.058935001 0.041533001
-0.01472 -0.058889002 0.041524
-0.022964001 -0.058954 0.041533001
-0.024456 -0.058589 0.041536
-0.016758 -0.059317999 0.041522
-0.024684999 -0.056437001 0.041519001
-0.019129001 -0.06041 0.041526999
-0.016876001 -0.060858998 0.041522998
-0.026591999 -0.0045110001 0.041363999
-0.0032939999 -0.0055479999 0.00094200001
-0.017183 0.016933 0.038959
-0.00096500001 -0.0046430002 0.040594999
-0.0096070003 -0.011491 0.010771
-0.0032889999 0.023666 0.014386
-0.0046060001 0.022988001 0.013392
0.0043600001 0.024900001 0.017252
0.0087750005 -0.016481999 0.0095030004
0.0072479998 0.014889 0.023213999
0.0089570004 0.017057 0.026454
0.0076589999 -0.0056250002 0.0021929999
0.011474 -0.020602999 0.032593001
0.002535 -0.0054080002 0.00079399999
0.0031270001 -0.0091770003 0.00188
0.00133 -0.010899 0.002503
-0.001304 -0.019392001 0.0084250001
0.001441 -0.045380998 0.041386001
-0.019169001 -0.00064400001 0.041373
0.019631 0.024250999 0.040045999
0.019424001 -0.04118 0.041384999
0.0067079999 0.00281 0.041195001
0.0079359999 0.025707001 0.026473001
0.0075110001 0.025531 0.023414001
0.0083330004 0.01244 0.0057259998
0.011519 -0.054873999 0.041508
0.012373 -0.030433999 0.037324
-0.0095950002 -0.020637 0.023293
-0.012887 0.022515001 0.034433998
-0.026590999 0.021423999 0.041358002
0.0069439998 0.0090589998 0.014913
0.0033799999 -0.013178 0.021430001
0.00141 -0.012934 0.021128001
-0.001275 -0.013295 0.022573
-0.00049499999 -0.012863 0.021260001
0.0066229999 -0.012712 0.019348999
0.0043299999 -0.011539 0.018680001
0.0068999999 -0.011092 0.016867001
0.0054739998 -0.010626 0.017306
0.0035920001 -0.012221 0.019671001
-0.0074379998 -0.014817 0.023514999
-0.0065219998 -0.014798 0.026560999
-0.001624 -0.014105 0.025506999
-0.003577 -0.014334 0.02661
0.0073660002 -0.006631 0.013267
0.007036 -0.0077200001 0.014152
0.0067409999 -0.0092099998 0.015367
-0.008409 -0.011892 0.016267
-0.0071350001 -0.012875 0.019242
0.000619 -0.010934 0.018204
-0.0014440001 -0.01036 0.017708
-0.0036160001 -0.011385 0.018754
0.0091660004 -0.017506 0.023224
-0.0079939999 -0.021847 0.014014
-0.0083029997 -0.022381 0.015632
-0.0045090001 0.012742 0.020515
-0.0016740001 0.012112 0.019838
-0.0082470002 0.013492 0.018468
-0.0045039998 0.011696 0.018982001
-0.0046430002 0.014103 0.023589
0.012688 -0.056481 0.041513
0.0080230003 -0.024143999 0.019991999
0.0071820002 -0.022132 0.013629
0.0085340003 -0.020496 0.01355
0.0080920001 -0.018174 0.0097599998
0.012653 0.013441 0.037519999
0.0086730001 0.0153 0.031475998
0.0090300003 0.010694 0.01311
-0.0093059996 -0.015506 0.031434
-0.0084790001 -0.015565 0.029599
-0.0044940002 -0.011546 0.035670999
-0.0035250001 -0.01234 0.034480002
-0.0091030002 -0.016731 0.022514001
0.001419 -0.003394 0.040984001
0.001412 -0.0060760002 0.040043999
-0.00032399999 -0.012991 0.032751001
0.002574 -0.0024959999 0.041209001
-0.0091589997 -0.014606 0.017380999
-0.0095370002 -0.015411 0.015343
-0.010452 0.030265 0.035801001
-0.006238 0.028100999 0.029934
-0.0046870001 0.029679 0.032481998
-0.0054250001 0.024228999 0.015774
0.01401 -0.026575999 0.036756001
0.013065 -0.023351001 0.034954999
0.012998 0.020749001 0.034999002
0.0093769999 0.019188 0.02159
0.0089959996 -0.020653 0.015408
0.0092860004 0.016737999 0.019474
0.0092230001 -0.016586 0.011409
0.0093130004 -0.014728 0.011396
0.0093609998 0.015484 0.014848
0.009354 0.014711 0.01341
0.0092080003 -0.011412 0.007404
0.0093510002 0.0066240001 0.0085389996
0.0093499999 0.0087120002 0.0084450003
0.0093369996 0.0038310001 0.0073259999
0.0093560005 0.006608 0.007332
0.0085920002 -0.005537 0.003302
-0.0052689998 -0.058290001 0.041526999
-0.0045340001 -0.055367999 0.041512001
-0.002573 -0.054740999 0.041510001
0.0028919999 -0.056876 0.041508999
-0.00047100001 -0.053222999 0.041503001
0.0073290002 -0.056814 0.041514002
-0.0089750001 -0.022922 0.019397
-0.007067 -0.024047 0.016933
-0.0082240002 -0.020104 0.011766
-0.011753 -0.00062900002 0.041382998
-0.0046049999 -0.001408 0.041267
-0.0034690001 -0.00063800003 0.041356001
-0.006608 0.001495 0.041262001
-0.013431 0.0050289999 0.041076999
-0.004489 0.002666 0.041156001
-0.0046839998 0.0048460001 0.040645
-0.0024959999 0.0046370002 0.040690999
-0.0082329996 -0.01336 0.0058109998
-0.012379 0.0095070004 0.039521001
-0.003698 -0.013922 0.0043139998
-0.003332 0.0086080004 0.038702
-0.0071789999 -0.0092120003 0.002786
-0.015348 0.014414 0.038601
-0.018428 0.020502999 0.039367002
-0.011372 0.015489 0.034591001
-0.0047539999 -0.0065049999 0.001237
-0.0078370003 -0.0054839998 0.002137
0.014504 0.026912 0.037370998
0.01206 0.026447 0.034929
0.003358 0.029645 0.032310002
0.002541 0.028979 0.031055
0.017382 0.016332 0.039312001
0.0035019999 0.027474999 0.027424
0.019436 0.012709 0.040762998
0.0043970002 0.02626 0.021579999
0.017469 0.0087970002 0.040984001
0.013565 0.0082989996 0.040382002
0.014584 0.0073799998 0.040831
0.016635999 0.0065930001 0.041209001
0.022534 0.0035659999 0.041370001
0.018716 0.0045440001 0.041361999
0.018401001 0.0034660001 0.041374002
0.022632999 0.001703 0.041375
0.016837999 0.00049200002 0.041386999
0.013259 0.001258 0.041404001
0.011473 0.00129 0.041384
0.0094720004 0.001382 0.041372001
0.020752 -0.0033780001 0.041363001
0.0048039998 0.002473 0.041211002
0.0069419998 0.018785 0.0091070002
0.014465 -0.003339 0.041311
0.0044209999 0.018224001 0.0075739999
0.020679001 -0.0076600001 0.04132
0.012322 -0.005194 0.041001
0.021327 -0.0094179995 0.041262001
0.016431 -0.0087670004 0.040761001
0.0076930001 -0.010679 0.03726
0.0065520001 -0.0096519999 0.037976
0.0067509999 0.010674 0.0032480001
0.0053630001 -0.01077 0.036740001
0.014898 -0.019559 0.037152998
0.0046859998 0.00349 0.00058300002
0.0035089999 0.003361 0.00047
0.019564001 -0.027587 0.040158
0.015399 -0.02368 0.037353002
0.015923999 -0.025764 0.038010001
0.0054739998 -0.002541 0.00062399998
0.017042 -0.040516 0.041335002
0.014524 -0.043067001 0.041363999
0.0093419999 -0.054579999 0.041506
-0.020815 -0.04462 0.041425999
-0.023588 -0.039400999 0.041397002
-0.019253001 -0.043510001 0.041416999
-0.019228 -0.041358002 0.041400999
-0.012834 -0.040769 0.041039001
-0.025473 -0.027369 0.041271001
-0.016601 -0.037241001 0.040886
-0.0085399998 -0.044613 0.041342001
-0.010638 -0.042633001 0.041173998
-0.010407 -0.041237 0.040984001
-0.022599 -0.027443999 0.040893
-0.0064989999 -0.044452 0.041168999
-0.005508 -0.043412 0.041088
-0.0074339998 -0.040621001 0.040702999
-0.013366 -0.033124 0.038959
0.0086430004 -0.056664001 0.041519001
0.0082590003 -0.061335001 0.041533001
-0.0066530001 -0.038761999 0.040087
-0.0046959999 -0.041308001 0.040752001
-0.001362 -0.044395 0.041253999
-0.0034650001 -0.040686999 0.040592
0.00069100002 -0.042651001 0.041048001
0.0027099999 -0.044560999 0.041283999
0.0045659998 -0.044658002 0.041301999
-0.003025 -0.035011999 0.037943002
0.0026199999 -0.036800999 0.039035998
0.0056540002 -0.041035999 0.040739
0.00042 -0.035530999 0.038196001
0.0032250001 -0.035813998 0.038458001
-0.001494 -0.032382999 0.035771001
-0.003699 -0.029593 0.032389998
0.001326 -0.033363 0.036642
-0.025428001 -0.000703 0.041372001
-0.022603 -0.00086700002 0.041361
0.0066140001 -0.035583999 0.038532998
0.010461 -0.036433 0.039611999
-0.025403 0.0072150002 0.041404001
-0.02066 0.00081699999 0.041395001
-0.004369 -0.026893999 0.025365001
-0.017297 0.0028359999 0.041409999
-0.019219 0.003541 0.041393999
-0.025212999 0.015502 0.041311
-0.024599001 0.013452 0.041366
-0.027313 0.016649 0.041363999
-0.026489999 0.019270999 0.041349001
-0.015392 0.0084680002 0.040654998
-0.003335 -0.022961 0.013202
-0.022570999 0.019370999 0.040941998
-0.0026730001 -0.020533999 0.0097820004
-0.019890999 0.020494999 0.040052999
-0.002513 -0.018727001 0.0078210002
-0.0026140001 -0.017317001 0.0065640002
0.000424 -0.012598 0.0033170001
-0.00067099999 -0.0084349997 0.001443
-0.001474 -0.0045440001 0.00058400002
0.001304 -0.0066200001 0.00099500001
-0.001388 -0.0026149999 0.00025700001
-0.001395 0.00052399997 9.3000002e-05
0.011477 -0.034527 0.039035998
0.015532 -0.029309001 0.038677
0.0046620001 -0.026854999 0.025455
-0.0024900001 -0.027024999 0.025351999
0.0045340001 -0.026546 0.023467001
-0.00055200001 -0.026818 0.023460001
0.003452 0.0046780002 0.040677
0.0085760001 0.0075110001 0.039834999
0.0066069998 0.0074809999 0.039624002
0.0027280001 -0.025992 0.020218
0.005446 -0.025192 0.018493
0.002444 0.0086129997 0.038626
0.004704 0.0086610001 0.038704
0.0061030001 0.0099600004 0.037852
0.0034139999 -0.02472 0.016612001
-0.001125 -0.025049999 0.016972
0.00042 -0.025078001 0.016934
0.00079800002 -0.024385 0.01553
-0.00073099998 -0.024397001 0.015539
0.0042190002 0.013914 0.031771
-0.0045909998 0.013975 0.031521998
-0.003398 0.014098 0.030425999
0.0068780002 0.015003 0.028558001
0.0055570002 0.014742 0.0274
-0.0054540001 0.014621 0.028518001
0.002537 -0.017371999 0.0065910001
0.001615 0.014173 0.024697
