# .PCD v0.7 - Point Cloud Data file format
VERSION 0.7
FIELDS x y z rgb
SIZE 4 4 4 4
TYPE F F F F
COUNT 1 1 1 1
WIDTH 1283
HEIGHT 1
VIEWPOINT 0 0 0 1 0 0 0
POINTS 1283
DATA ascii
-0.18353468 0.015858334 0.59637803 0
-0.17366068 -0.0099146664 0.63395804 0
-0.17259967 -0.011729665 0.63479 0
-0.18308967 0.012974334 0.59706706 0
-0.17345768 -0.015140666 0.63512301 0
-0.18564668 0.011908334 0.59577405 0
-0.17146668 -0.016790668 0.63591003 0
-0.18446268 0.009887334 0.59662503 0
-0.18633068 0.0098353345 0.59616405 0
-0.17229868 -0.018097667 0.63591802 0
-0.17501768 -0.017378667 0.63514602 0
-0.17229368 -0.020104667 0.63612604 0
-0.17752568 -0.016781667 0.63414603 0
-0.17577368 -0.020749668 0.635755 0
-0.17410168 -0.020820664 0.63601702 0
-0.17366368 -0.022730665 0.63627303 0
-0.17597468 -0.022483667 0.636042 0
-0.17759669 -0.023058666 0.635948 0
-0.17631768 -0.024095668 0.63621104 0
-0.17780969 -0.026176667 0.63630801 0
-0.17759669 -0.028393665 0.636392 0
-0.17959268 -0.027182667 0.63631701 0
-0.18167368 -0.027221667 0.63628703 0
-0.18022168 -0.029298665 0.63643402 0
-0.18324868 -0.038083665 0.63650304 0
-0.18433668 -0.036621667 0.63649201 0
-0.20166768 -0.039927669 0.63651001 0
-0.20071168 -0.043777667 0.636536 0
-0.20202768 -0.044003665 0.63653803 0
-0.20143668 -0.042755663 0.63653105 0
-0.19993168 -0.042141668 0.63652903 0
-0.21245869 -0.026820665 0.636415 0
-0.21210068 -0.025037667 0.636406 0
-0.19979668 -0.04103867 0.63651901 0
-0.19977568 -0.039207667 0.63650501 0
-0.21835868 -0.016099667 0.63635302 0
-0.21620768 -0.016826665 0.63635904 0
-0.21149269 -0.022817666 0.63638204 0
-0.21366568 -0.020886665 0.63637203 0
-0.20820868 -0.028236667 0.636428 0
-0.21544369 -0.018796666 0.63636202 0
-0.21820769 -0.014126666 0.636361 0
-0.20748767 -0.026799666 0.63641304 0
-0.21254368 -0.020297667 0.63629305 0
-0.21035868 -0.022247666 0.63630801 0
-0.20565768 -0.026119666 0.63638902 0
-0.21370168 -0.017886667 0.63625801 0
-0.20763469 -0.024225665 0.63628006 0
-0.21588469 -0.014081666 0.63628602 0
-0.20362568 -0.028141664 0.636397 0
-0.21735768 -0.012634667 0.63633704 0
-0.21037269 -0.020867666 0.636132 0
-0.20563868 -0.024380667 0.63613302 0
-0.21623568 -0.012065666 0.63626301 0
-0.21740168 -0.010978665 0.63633001 0
-0.21040668 -0.018412666 0.63595402 0
-0.21183768 -0.016997667 0.63600904 0
-0.20749168 -0.022291666 0.63603002 0
-0.21440868 -0.013089666 0.63606906 0
-0.20362368 -0.026135666 0.63627601 0
-0.20163569 -0.028194668 0.63633704 0
-0.21031868 -0.016084665 0.63566905 0
-0.20837767 -0.018184667 0.63553303 0
-0.18587668 -0.042850666 0.63651901 0
-0.18580568 -0.044505663 0.63652605 0
-0.18765669 -0.042374663 0.63652104 0
-0.20516369 -0.022966666 0.63591701 0
-0.20638268 -0.021013668 0.635737 0
-0.20048168 -0.026252666 0.63613701 0
-0.21236768 -0.012118666 0.6358 0
-0.21140969 -0.013755666 0.635625 0
-0.20341468 -0.022954667 0.63577706 0
-0.18456069 -0.043719664 0.63652802 0
-0.18424068 -0.042573668 0.63652503 0
-0.21025068 -0.014753666 0.635427 0
-0.20445868 -0.020861665 0.63543606 0
-0.20220669 -0.022966666 0.63568103 0
-0.20856468 -0.017096667 0.63540602 0
-0.20161168 -0.021118665 0.63504601 0
-0.20847867 -0.015520668 0.63507003 0
-0.21239269 -0.010897666 0.63570005 0
-0.20741668 -0.016195664 0.63488901 0
-0.18257968 -0.042819664 0.63653105 0
-0.20428067 -0.018866668 0.63473403 0
-0.21054868 -0.011284666 0.63517302 0
-0.20927568 -0.012011666 0.63473803 0
-0.19543768 -0.028244665 0.63624102 0
-0.20539768 -0.018150667 0.63481504 0
-0.20037468 -0.022223664 0.63529003 0
-0.19415969 -0.030838666 0.63646102 0
-0.20162567 -0.020227665 0.63468701 0
-0.19368169 -0.028993664 0.63638401 0
-0.20247568 -0.017354665 0.63362002 0
-0.20857069 -0.010328665 0.63414103 0
-0.18043868 -0.042769663 0.63653404 0
-0.20597468 -0.014060667 0.63362002 0
-0.20457268 -0.015139667 0.633385 0
-0.20950168 -0.0081656668 0.63435501 0
-0.20047268 -0.018926667 0.63383704 0
-0.19908568 -0.021566665 0.63492304 0
-0.19598968 -0.022482665 0.63505805 0
-0.19233568 -0.026171668 0.63606203 0
-0.19451268 -0.023228666 0.63530403 0
-0.19362068 -0.026124666 0.63606405 0
-0.19243369 -0.023358667 0.635315 0
-0.19665468 -0.018873667 0.63324702 0
-0.19770569 -0.017258665 0.63223702 0
-0.19153269 -0.021955667 0.63477105 0
-0.18996169 -0.023400666 0.63532305 0
-0.18747768 -0.026088664 0.63604903 0
-0.19149467 -0.020875664 0.63428402 0
-0.18282868 -0.028273666 0.636334 0
-0.18780167 -0.022079667 0.63485706 0
-0.19361567 -0.020384667 0.63404405 0
-0.19741768 -0.014983667 0.63018101 0
-0.18415569 -0.025095666 0.63587904 0
-0.19251367 -0.018085668 0.632568 0
-0.19325969 -0.016753664 0.63153201 0
-0.18635568 -0.022119666 0.63492101 0
-0.18550868 -0.020542664 0.634251 0
-0.19668368 -0.012958666 0.62740302 0
-0.18946068 -0.018119665 0.63256001 0
-0.18329568 -0.023008665 0.635396 0
-0.19614568 -0.012364667 0.626212 0
-0.18167467 -0.024700666 0.63593805 0
-0.19368868 -0.014419666 0.62914604 0
-0.18158668 -0.022808665 0.63545901 0
-0.18346868 -0.020683667 0.63446802 0
-0.17969468 -0.024321666 0.63600701 0
-0.17944168 -0.022354664 0.63559401 0
-0.18260267 -0.020200664 0.63431805 0
-0.19638067 -0.011171667 0.62362301 0
-0.21242468 0.015763335 0.63637102 0
-0.21433568 0.018603334 0.63639301 0
-0.19454968 -0.011701666 0.62458104 0
-0.17797469 -0.021140667 0.63548803 0
-0.19565968 -0.010717666 0.62179202 0
-0.21442768 0.022967335 0.63640505 0
-0.21220869 0.019705335 0.636388 0
-0.17842068 -0.019835668 0.63498902 0
-0.21770668 0.026980333 0.63638401 0
-0.20841168 0.015806334 0.63635606 0
-0.21031968 0.017651334 0.63640004 0
-0.19547369 -0.010088665 0.61831701 0
-0.21225367 0.021066334 0.63636905 0
-0.19423668 -0.010182666 0.61839104 0
-0.19635569 -0.0094126668 0.61545104 0
-0.21565968 0.027877335 0.63640505 0
-0.21360368 0.024751334 0.636397 0
-0.20835268 0.017211335 0.636392 0
-0.19538969 -0.009610666 0.61586404 0
-0.20634468 0.019045334 0.63640106 0
-0.21769868 0.029787334 0.63640904 0
-0.21756469 0.030996334 0.63636202 0
-0.21245769 0.024033334 0.63640302 0
-0.19555968 -0.0085466653 0.61244404 0
-0.21033268 0.023828335 0.63621104 0
-0.20956968 0.025045335 0.63603306 0
-0.20856369 0.022896335 0.63619006 0
-0.21274468 0.029079333 0.63609004 0
-0.21446168 0.031110335 0.63618803 0
-0.21158469 0.027808335 0.63602203 0
-0.21561667 0.033781335 0.63625103 0
-0.19565368 -0.0072076656 0.60956204 0
-0.21367168 0.032951333 0.63601005 0
-0.21229868 0.031056333 0.635867 0
-0.20569168 0.021585334 0.63613605 0
-0.21037968 0.029836334 0.635638 0
-0.20982368 0.027899334 0.63577205 0
-0.21555868 0.035884336 0.63620901 0
-0.20882168 0.028924335 0.63532501 0
-0.21240968 0.033939332 0.63570702 0
-0.20986567 0.030749334 0.63528305 0
-0.20610768 0.028009333 0.63459104 0
-0.20807268 0.030076334 0.63476604 0
-0.21035568 0.033108331 0.63503104 0
-0.19563268 -0.0047216658 0.60575503 0
-0.21230069 0.037971333 0.63552505 0
-0.19527268 -0.00085566565 0.60166705 0
-0.19211368 -0.0020986665 0.60249901 0
-0.19201069 0.0011263341 0.59992701 0
-0.19179869 0.0051173344 0.59764302 0
-0.19211867 0.0065473337 0.59702003 0
-0.19255368 0.0095243342 0.59611005 0
-0.19435868 0.013850334 0.59540105 0
-0.18864168 0.0088443346 0.596295 0
-0.19048868 0.011252334 0.595649 0
-0.19357768 0.015005334 0.595263 0
-0.19438668 0.017900335 0.59528005 0
-0.19454668 0.019815333 0.59555602 0
-0.19366068 0.021884333 0.59586704 0
-0.18157168 -0.017445667 0.63304305 0
-0.17650568 -0.015903665 0.63419402 0
-0.17989369 -0.015948666 0.63281304 0
-0.18841268 -0.016979666 0.63172001 0
-0.19020969 -0.014256665 0.62875903 0
-0.19051068 -0.013326665 0.62734103 0
-0.18922968 -0.012520665 0.62602401 0
-0.19236368 -0.012780666 0.62645203 0
-0.19110768 -0.011926666 0.62460101 0
-0.18833168 -0.011694666 0.62434006 0
-0.18831168 -0.011343665 0.62336105 0
-0.18648969 -0.011202667 0.62340903 0
-0.19011869 -0.011340667 0.62309003 0
-0.19235468 -0.011137666 0.6225 0
-0.18569069 -0.010576665 0.62162703 0
-0.18949068 -0.010879666 0.62148005 0
-0.18755469 -0.010780666 0.62161702 0
-0.18849368 -0.010609666 0.62040502 0
-0.19241267 -0.010587666 0.61984301 0
-0.18540868 0.021396333 0.63561106 0
-0.18844068 -0.010097666 0.61751801 0
-0.19050968 0.021035334 0.63565803 0
-0.18244769 0.023103334 0.63520402 0
-0.19041868 -0.010006666 0.61639005 0
-0.18756267 0.022567334 0.63502502 0
-0.18545268 -0.0093836654 0.61560905 0
-0.17846668 0.026190333 0.63451004 0
-0.18641768 0.023833334 0.63455003 0
-0.18445368 0.025282335 0.63373101 0
-0.19073568 -0.0095996652 0.61487401 0
-0.18127967 0.025811333 0.63393801 0
-0.17761968 0.028102335 0.63388801 0
-0.19234768 0.023800334 0.63449401 0
-0.19029169 0.023844333 0.63442105 0
-0.17973368 0.027090333 0.633587 0
-0.18842368 -0.0090946667 0.61364901 0
-0.19137368 -0.0091236662 0.61333001 0
-0.19338769 0.023857335 0.63450605 0
-0.17725068 0.029536333 0.63338804 0
-0.17570469 0.029859334 0.634036 0
-0.18063368 0.028169334 0.63246703 0
-0.18961568 -0.0090446658 0.61327004 0
-0.18228668 0.027702335 0.63222504 0
-0.19140168 0.026009334 0.63281906 0
-0.19440968 0.026288334 0.63273001 0
-0.19144168 0.027007334 0.63182801 0
-0.19349769 -0.0086986665 0.612477 0
-0.19439568 0.027286334 0.63174903 0
-0.19405667 -0.0079456661 0.61074603 0
-0.19158868 0.028172333 0.63043302 0
-0.18865068 -0.0072816666 0.60934705 0
-0.18818969 -0.0064516664 0.608024 0
-0.18975668 0.028715335 0.62958801 0
-0.19265369 0.028923333 0.62927604 0
-0.19046268 -0.0067646652 0.60825104 0
-0.18945068 0.029819334 0.62766701 0
-0.19448368 0.029524334 0.62845302 0
-0.19172367 -0.0063316654 0.60762 0
-0.19156969 0.030101333 0.62662202 0
-0.18848369 0.030258335 0.62646902 0
-0.19229268 -0.0047986656 0.60549402 0
-0.18944068 -0.0045466665 0.60521805 0
-0.18562768 0.030926334 0.62450403 0
-0.19028968 -0.0040036663 0.60452604 0
-0.19652368 0.030744333 0.62561601 0
-0.19160368 0.030599333 0.62428302 0
-0.18927269 0.030741334 0.62348604 0
-0.19454768 0.030865334 0.62364703 0
-0.18773568 0.030879334 0.62243205 0
-0.18762068 0.030819334 0.62048501 0
-0.19030668 0.030740334 0.62170601 0
-0.18859369 -0.0020756666 0.60259002 0
-0.18548468 0.031047333 0.62044704 0
-0.19347069 0.030841334 0.62163204 0
-0.19629069 0.031118333 0.62254602 0
-0.19228569 0.030651335 0.62055701 0
-0.18961269 -0.00086766668 0.60145402 0
-0.19360568 0.030669335 0.61979002 0
-0.19213468 0.030355334 0.61902404 0
-0.18860768 0.030050334 0.61755604 0
-0.18745768 0.0013523344 0.59997106 0
-0.19025868 0.029946335 0.61762404 0
-0.18861568 0.029654335 0.61651301 0
-0.18348669 0.031016335 0.61666501 0
-0.18962568 0.029321335 0.61609405 0
-0.18628769 0.029483333 0.61574602 0
-0.18548869 0.0053853337 0.59794503 0
-0.18647768 0.0041253343 0.59841603 0
-0.18340868 0.028717335 0.612405 0
-0.18538068 0.0069183344 0.59726304 0
-0.18765968 0.0058193337 0.59752303 0
-0.19379269 -0.040679663 0.63652104 0
-0.19174369 -0.04417567 0.63655603 0
-0.18958968 0.019629333 0.63602102 0
-0.20264567 -0.0050756652 0.62753701 0
-0.20191568 -0.004970666 0.626064 0
-0.20164868 -0.0064106658 0.62554604 0
-0.20129567 0.035960332 0.62464404 0
-0.20137268 0.038119335 0.62451804 0
-0.20073768 -0.0028096661 0.62236303 0
-0.20038068 -0.0071536656 0.62148303 0
-0.20063068 0.035051335 0.62235504 0
-0.20066568 -0.0042376667 0.621324 0
-0.19997768 0.033396333 0.62193102 0
-0.20058468 -0.0048446655 0.62049204 0
-0.20031369 -0.0070196651 0.62044102 0
-0.20013568 0.033864334 0.620453 0
-0.20003968 0.033375334 0.61835003 0
-0.19794469 0.031449333 0.61976606 0
-0.20055768 -0.0033176653 0.61636806 0
-0.20058168 0.037884332 0.61814702 0
-0.20051868 -0.0047636665 0.61651003 0
-0.19935468 0.032092333 0.61760902 0
-0.19824468 0.031380333 0.61850405 0
-0.19999968 -0.0067716669 0.61568803 0
-0.20061068 0.036916334 0.61628503 0
-0.20029368 0.033174336 0.61554605 0
-0.19953668 0.032002334 0.61661804 0
-0.20044668 -0.0048686657 0.61444002 0
-0.20000067 0.031372335 0.61345404 0
-0.20055668 -0.0030566659 0.61225301 0
-0.20057368 0.034981333 0.61237103 0
-0.20049268 0.032930333 0.61240602 0
-0.19913968 0.028298333 0.61144501 0
-0.20013168 -0.0040066652 0.60958701 0
-0.19987468 0.027898334 0.60966903 0
-0.20023668 -0.0029356666 0.60852802 0
-0.20033169 0.027829334 0.60838902 0
-0.20043968 -0.0011046659 0.60732204 0
-0.19953968 0.025370333 0.60836101 0
-0.19977468 0.007807334 0.60783201 0
-0.20053568 0.0011133337 0.60746503 0
-0.20060568 0.027227335 0.60656601 0
-0.19954269 0.023877334 0.60757101 0
-0.20037667 0.025330335 0.60643202 0
-0.20054369 0.0030953344 0.60587603 0
-0.20056368 0.031065334 0.60626501 0
-0.20040168 0.0077823335 0.60632706 0
-0.20047668 0.00088033359 0.60563201 0
-0.20056868 0.029884335 0.60565501 0
-0.20064569 0.026837334 0.60436904 0
-0.20038268 0.013017334 0.60451704 0
-0.20052168 0.011833334 0.604505 0
-0.20048968 0.021011334 0.60443401 0
-0.20032269 0.017918333 0.60448301 0
-0.20041367 0.0030623339 0.60364902 0
-0.20057568 0.0057133343 0.60354602 0
-0.19954067 -9.6665695e-05 0.60354602 0
-0.20052068 0.007145334 0.60161602 0
-0.20027968 0.0050713336 0.60170901 0
-0.20058368 0.0090503339 0.60141903 0
-0.19970468 0.001641334 0.60252005 0
-0.20060268 0.022159334 0.60174501 0
-0.20060869 0.013026334 0.60178405 0
-0.20061567 0.014940334 0.60024703 0
-0.20000568 0.0071253339 0.59993601 0
-0.19987369 0.0059233336 0.60023803 0
-0.20051768 0.018965334 0.599756 0
-0.20049667 0.013766333 0.59961504 0
-0.20025869 0.023953333 0.599801 0
-0.20043768 0.021042334 0.59958702 0
-0.19995569 0.011847334 0.59833205 0
-0.21161269 0.048849337 0.63595301 0
-0.20791867 0.049081333 0.63504905 0
-0.21375167 0.047787331 0.63618302 0
-0.20448968 0.051166333 0.63462502 0
-0.21028568 0.047941335 0.63553804 0
-0.20442969 0.049535334 0.63397604 0
-0.21226668 0.045770332 0.63583803 0
-0.20255268 0.049954332 0.63346803 0
-0.21073268 0.045587335 0.63538003 0
-0.20608468 0.047506332 0.63388401 0
-0.20784569 0.046151333 0.63433605 0
-0.21562068 0.043782335 0.63629305 0
-0.21221869 0.044015333 0.635674 0
-0.20658568 0.045774333 0.63358104 0
-0.21056268 0.043922335 0.635149 0
-0.20427668 0.045756333 0.63215101 0
-0.20917667 0.045006335 0.634709 0
-0.21775669 0.041882336 0.63638002 0
-0.20944469 0.043176334 0.63459903 0
-0.21576168 0.040945336 0.63619804 0
-0.20524567 0.044736333 0.63241005 0
-0.20801668 0.043539334 0.63391203 0
-0.21444568 0.039821334 0.63605005 0
-0.21645167 0.039071336 0.636271 0
-0.20814168 0.041770332 0.63372302 0
-0.21216868 0.039718334 0.63543302 0
-0.20949069 0.040668335 0.63438803 0
-0.20403968 0.042966336 0.63071501 0
-0.20208268 0.044731334 0.62975502 0
-0.21410169 0.037601333 0.635988 0
-0.20553169 0.041198336 0.63164902 0
-0.20200568 0.041808333 0.62749904 0
-0.20398968 0.040886335 0.62991905 0
-0.20260969 0.039986335 0.62771201 0
-0.20192568 0.039819334 0.62628305 0
-0.20135269 0.039103337 0.62459201 0
-0.20064968 0.039828334 0.62231106 0
-0.20072669 0.037924334 0.62146103 0
-0.20042568 0.034932334 0.60843104 0
-0.21400568 0.012811334 0.63637704 0
-0.21231869 0.013019335 0.636361 0
-0.20963368 0.012994334 0.63638502 0
-0.21547268 0.013100334 0.63638502 0
-0.18966968 0.017955333 0.63633901 0
-0.21573468 0.011037334 0.63636303 0
-0.21238968 0.011916334 0.63633704 0
-0.20002468 0.031774335 0.60360205 0
-0.20563269 0.012997334 0.63637102 0
-0.20244469 0.011564334 0.63598603 0
-0.19159868 0.014707334 0.63627005 0
-0.21324968 0.008853334 0.63637805 0
-0.21136068 0.0091703339 0.63632101 0
-0.19432768 0.013142334 0.63607502 0
-0.20401868 0.011306334 0.63602203 0
-0.20004068 0.029524334 0.60195005 0
-0.21046168 0.0089883339 0.63626105 0
-0.19903268 0.030459333 0.600905 0
-0.20033269 0.011734334 0.63585806 0
-0.21441267 0.0076273335 0.63637501 0
-0.19164369 0.013303334 0.63606101 0
-0.20176068 0.0097493343 0.63537002 0
-0.20548368 0.0097303335 0.635885 0
-0.21023268 0.0080273338 0.63614905 0
-0.20058568 0.010147334 0.63540804 0
-0.19641268 0.011680334 0.63568103 0
-0.19780467 0.010288334 0.63521904 0
-0.21152568 0.0069183344 0.63618904 0
-0.21745968 0.0050723338 0.63639605 0
-0.19840668 0.028958334 0.59948504 0
-0.20637968 0.0077163344 0.63552302 0
-0.20119868 0.0088643339 0.63492203 0
-0.21172968 0.0049703335 0.63600701 0
-0.19571269 0.028870333 0.59845603 0
-0.19817369 0.0087963343 0.63449103 0
-0.21033168 0.0049213339 0.63580203 0
-0.21544468 0.0029763337 0.63632202 0
-0.19903468 0.026877334 0.59894502 0
-0.20745468 0.0048453342 0.63500202 0
-0.20683068 0.0061253337 0.63516003 0
-0.21371268 0.0048583336 0.63623601 0
-0.20823668 0.0036643343 0.63495302 0
-0.20529568 0.0051303338 0.63426203 0
-0.21037768 0.0031223344 0.63559902 0
-0.19761167 0.025985334 0.59757501 0
-0.21534668 0.0010573342 0.63624805 0
-0.20241368 0.0058443341 0.63347703 0
-0.21204768 0.00090133399 0.63570601 0
-0.21454068 -0.0010026656 0.635975 0
-0.20764267 0.0018983344 0.634251 0
-0.19519868 0.024862334 0.59670603 0
-0.21625568 -0.00092866644 0.63625902 0
-0.20227969 0.0038863337 0.631971 0
-0.21248968 -0.0010626651 0.63564903 0
-0.19543868 0.023170333 0.59623903 0
-0.20423068 0.001482334 0.63174403 0
-0.20805869 -0.00043066591 0.63387901 0
-0.21087769 -0.0020406656 0.63509005 0
-0.20232569 0.0018993337 0.63034004 0
-0.21444967 -0.0031256657 0.63598704 0
-0.21829368 -0.0047646668 0.63633001 0
-0.21776268 -0.0061366651 0.63633001 0
-0.20458367 -0.00015566684 0.63127404 0
-0.20953569 -0.0028426666 0.63444 0
-0.21240768 -0.0049016662 0.63548702 0
-0.20815969 -0.0030476656 0.63367903 0
-0.21448268 -0.0062276665 0.63587606 0
-0.19641869 0.020033333 0.59574002 0
-0.20270269 0.00015533343 0.62929201 0
-0.20581068 -0.0020326655 0.63201702 0
-0.21099168 -0.0052386653 0.63493705 0
-0.20381267 -0.00075466558 0.63021201 0
-0.20443869 -0.0024006665 0.630584 0
-0.20844269 -0.0050626658 0.63366306 0
-0.21568868 -0.0080556665 0.636199 0
-0.21098869 -0.006837666 0.63494903 0
-0.21782868 -0.0090876669 0.636316 0
-0.20297568 -0.0022226665 0.62864202 0
-0.20643967 -0.0049586669 0.63220501 0
-0.20842668 -0.0061976667 0.63366401 0
-0.21338367 -0.0081076659 0.63577402 0
-0.20050769 -0.0022056662 0.62038004 0
-0.20047069 -0.0021626651 0.61856502 0
-0.21846268 -0.019045668 0.63635403 0
-0.21768568 -0.020879665 0.63639504 0
-0.21558568 -0.024268666 0.63641202 0
-0.19741368 -0.037071668 0.63649803 0
-0.18715969 -0.015947668 0.63088202 0
-0.18533868 -0.016915666 0.63187701 0
-0.18663368 -0.014886664 0.62987804 0
-0.18249668 -0.014644666 0.63059103 0
-0.18185768 -0.013152666 0.62950104 0
-0.18552367 -0.013192667 0.62769902 0
-0.18007268 -0.012741666 0.63050604 0
-0.17821968 -0.012087665 0.63157803 0
-0.18354768 -0.012301667 0.627334 0
-0.18440868 -0.011771666 0.62581402 0
-0.17970967 -0.011165665 0.62965101 0
-0.18170668 -0.011044666 0.62735802 0
-0.18205768 -0.010515666 0.62626302 0
-0.17914568 -0.0092696659 0.62914705 0
-0.18379667 -0.010599665 0.62387705 0
-0.18107468 -0.009068666 0.62609804 0
-0.18194368 -0.0087556653 0.62369305 0
-0.18244869 -0.0088416655 0.622428 0
-0.18367368 -0.0090346653 0.61768603 0
-0.18242668 -0.0078726653 0.61839604 0
-0.18637168 -0.004784666 0.60585403 0
-0.18468568 -0.0016496666 0.60286701 0
-0.18474168 -0.00062166527 0.60195702 0
-0.18521269 0.001633334 0.60007805 0
-0.18240368 0.001908334 0.60250902 0
-0.18542968 0.027612334 0.63156205 0
-0.18228167 0.0057843337 0.60039103 0
-0.18630669 0.029018335 0.62957603 0
-0.18774368 0.028952334 0.62947905 0
-0.18375368 0.029201334 0.62992102 0
-0.18634868 0.029753335 0.62846303 0
-0.18236168 0.029897334 0.62965202 0
-0.18453468 0.029866334 0.62864703 0
-0.18035568 0.030860335 0.63009501 0
-0.17898268 0.031104334 0.63110703 0
-0.17947868 0.039261334 0.62763202 0
-0.18052968 0.041239336 0.62650305 0
-0.18002167 0.037903331 0.62643105 0
-0.18015268 0.039045334 0.62622905 0
-0.18161468 0.041628335 0.624623 0
-0.18234569 0.0026343344 0.62886006 0
-0.18111569 0.0020263344 0.62926602 0
-0.17915668 -0.0021306667 0.62855405 0
-0.18536168 0.0038903337 0.62945104 0
-0.18171768 0.0015063342 0.62784004 0
-0.18329068 0.0021863338 0.627141 0
-0.18175969 0.040616333 0.62247103 0
-0.18141468 0.037922334 0.621638 0
-0.18054068 -0.0011166669 0.62640202 0
-0.18174869 0.039678335 0.62042201 0
-0.18354568 0.0017393343 0.62566102 0
-0.18233769 0.041058332 0.62059504 0
-0.18782967 0.0027733343 0.62645203 0
-0.18635868 0.0027193343 0.62666601 0
-0.18086968 -0.0028466657 0.62447101 0
-0.18156268 0.037913334 0.61957002 0
-0.19045568 0.002915334 0.62634605 0
-0.18109968 -0.0042696651 0.62327302 0
-0.18181568 -0.0004726667 0.62350202 0
-0.18623768 0.0021583335 0.62436903 0
-0.18180668 0.039117336 0.61755103 0
-0.18259068 0.041025333 0.61844403 0
-0.18756267 0.0021203337 0.623712 0
-0.18165268 0.037891336 0.61645401 0
-0.19247368 0.002373334 0.62403905 0
-0.18157668 -0.0021116659 0.62032503 0
-0.18756469 0.0021113344 0.62149203 0
-0.18553968 0.0019483343 0.62039804 0
-0.19030169 0.0022303341 0.62242103 0
-0.18541768 0.041893333 0.61432701 0
-0.18763168 0.0022703344 0.61965805 0
-0.18175368 0.037825335 0.61431205 0
-0.18245669 0.038917333 0.61242205 0
-0.18156368 -0.0028386656 0.61754405 0
-0.18882269 0.0024533337 0.61909002 0
-0.19035868 0.0025223335 0.61937404 0
-0.18344468 0.039817333 0.611552 0
-0.18234968 0.00076533481 0.61639404 0
-0.18159267 -0.0022846665 0.61654305 0
-0.18441369 0.0026953341 0.61628503 0
-0.18278769 0.038559332 0.61069405 0
-0.18163668 -0.00093566626 0.61447901 0
-0.18865268 0.0029583341 0.61751705 0
-0.18963069 0.0029833335 0.61769301 0
-0.18200268 0.037010334 0.61051404 0
-0.18197268 0.0012053344 0.61354601 0
-0.18265568 0.0026853336 0.613289 0
-0.18271768 0.037199333 0.60851103 0
-0.18161668 -0.00097966567 0.61239803 0
-0.18167467 0.032974333 0.60656703 0
-0.18197867 0.0040683337 0.60973501 0
-0.18343069 0.0062443344 0.61043704 0
-0.18158469 0.031654336 0.60650206 0
-0.18164268 0.0037153335 0.60770506 0
-0.18202668 0.0070873341 0.60752106 0
-0.18243667 0.017803334 0.60559505 0
-0.18164769 0.0057813339 0.60636705 0
-0.18175769 0.029703334 0.60353005 0
-0.18207568 0.0091273338 0.60648406 0
-0.18243568 0.013933334 0.60571605 0
-0.18241969 0.015956335 0.60550201 0
-0.18162568 0.027914334 0.60458302 0
-0.18166769 0.0077773342 0.60536206 0
-0.18213868 0.011886334 0.60555702 0
-0.18208867 0.031281333 0.60333705 0
-0.18180868 0.019013334 0.604267 0
-0.18182167 0.015019334 0.60426402 0
-0.18189467 0.013968334 0.60460705 0
-0.18190669 0.027824335 0.60176402 0
-0.18160067 0.017015334 0.60169601 0
-0.18167268 0.024957333 0.60162306 0
-0.18160968 0.0098133339 0.60256904 0
-0.18165669 0.021144334 0.60043001 0
-0.18161169 0.015124334 0.60160804 0
-0.18161568 0.011796334 0.60155004 0
-0.18168168 0.014891334 0.59972203 0
-0.18169469 0.017127333 0.59964401 0
-0.18220468 0.019062335 0.59819603 0
-0.18239568 0.022048334 0.59832901 0
-0.16334069 0.073287331 0.63646603 0
-0.16530868 0.07308533 0.63645905 0
-0.16553968 0.071606331 0.63645601 0
-0.16722669 0.071703337 0.63646603 0
-0.16826569 0.072770335 0.63647103 0
-0.16413768 0.070776336 0.63645601 0
-0.17234668 0.073304333 0.636482 0
-0.17321368 0.074547336 0.63649201 0
-0.17550167 0.071826331 0.63647801 0
-0.17598268 0.072966337 0.63648504 0
-0.16993068 0.070847332 0.63647503 0
-0.17836767 0.072590336 0.63648903 0
-0.17821068 0.071165331 0.63649005 0
-0.20379668 0.074683331 0.63651401 0
-0.20220268 0.073722333 0.63651001 0
-0.18395068 0.072784334 0.63647801 0
-0.16616568 0.068969332 0.63646305 0
-0.16780668 0.069309331 0.63646901 0
-0.18167968 0.071268335 0.63648403 0
-0.17127468 0.069726333 0.63647401 0
-0.18830769 0.072817333 0.63649303 0
-0.18837868 0.071773335 0.63649601 0
-0.18980467 0.071098335 0.63649905 0
-0.19014968 0.072804332 0.63650304 0
-0.20462668 0.073107332 0.63649803 0
-0.18036067 0.070917331 0.63648605 0
-0.16607168 0.067865334 0.63645202 0
-0.19259968 0.069926336 0.63650304 0
-0.20936868 0.071312331 0.63649404 0
-0.20765768 0.071997337 0.63649303 0
-0.20857368 0.073662333 0.63650304 0
-0.20989569 0.074083336 0.63650703 0
-0.22113568 0.074660331 0.636518 0
-0.21453668 0.072911337 0.63650304 0
-0.21418469 0.071593337 0.63650304 0
-0.16413867 0.067091331 0.63643205 0
-0.17432669 0.069196336 0.63648003 0
-0.18439068 0.069780335 0.6365 0
-0.18847668 0.068882331 0.63649303 0
-0.17176868 0.067063332 0.63645601 0
-0.18999368 0.068960331 0.63649803 0
-0.19002068 0.067431331 0.63649106 0
-0.21830069 0.073153332 0.63650805 0
-0.22008768 0.073628336 0.636509 0
-0.18192369 0.068555333 0.63648605 0
-0.21607968 0.075380333 0.63651603 0
-0.20532969 0.071521334 0.63649905 0
-0.18607368 0.067999333 0.63648802 0
-0.17020267 0.066028334 0.63645405 0
-0.17757568 0.067882337 0.63647503 0
-0.21791469 0.071177334 0.63650405 0
-0.19414368 0.069658332 0.63650405 0
-0.21915269 0.070756331 0.63650101 0
-0.17353567 0.067142338 0.63645506 0
-0.18195768 0.067397334 0.63647604 0
-0.19223069 0.067038335 0.63649005 0
-0.21005468 0.069479331 0.63650304 0
-0.17174467 0.065584332 0.63645703 0
-0.17600068 0.065620333 0.63646603 0
-0.22126868 0.071345337 0.63649905 0
-0.17351969 0.065770335 0.63646102 0
-0.21170168 0.069506332 0.63650501 0
-0.19381969 0.067622334 0.63649601 0
-0.22392568 0.069932334 0.63649905 0
-0.15970768 0.063794337 0.63643801 0
-0.20394768 0.069863334 0.63650405 0
-0.15775768 0.062202334 0.63641101 0
-0.21379969 0.069598332 0.63650101 0
-0.18446068 0.065624334 0.63647604 0
-0.18629368 0.065887332 0.63648301 0
-0.19061267 0.065256335 0.63649803 0
-0.19958968 0.067070335 0.63648802 0
-0.20631568 0.067897335 0.63649303 0
-0.21590067 0.069729336 0.63650203 0
-0.19676068 0.067373335 0.63649005 0
-0.20434268 0.06584233 0.63649201 0
-0.20326868 0.067087337 0.63648802 0
-0.16555168 0.063634336 0.63644701 0
-0.19794968 0.067959331 0.63649106 0
-0.20806268 0.067754336 0.63649601 0
-0.20765068 0.069219336 0.63649905 0
-0.18813668 0.065119334 0.63649404 0
-0.16757868 0.063563332 0.63644803 0
-0.21023668 0.066561334 0.63649106 0
-0.21841069 0.069678336 0.63649803 0
-0.21966468 0.069329336 0.63649404 0
-0.17236969 0.064079337 0.63645303 0
-0.16537768 0.061774336 0.63640904 0
-0.17435868 0.064059332 0.63646805 0
-0.17621468 0.063799337 0.63646901 0
-0.18418568 0.063810334 0.63648802 0
-0.17773168 0.063285336 0.63647205 0
-0.19405468 0.065304331 0.63649201 0
-0.16043767 0.060533337 0.63640404 0
-0.16360068 0.061994337 0.63641906 0
-0.15774268 0.059889331 0.63641304 0
-0.16734768 0.06156633 0.63641304 0
-0.15617768 0.059902333 0.63640904 0
-0.19202869 0.064862333 0.63649601 0
-0.20243268 0.065087333 0.63650203 0
-0.17253467 0.061786331 0.63642204 0
-0.20591068 0.066319332 0.63649005 0
-0.22420567 0.065769337 0.63647801 0
-0.22431567 0.06694933 0.63647604 0
-0.16435169 0.059754334 0.63642001 0
-0.16590568 0.059717335 0.63642001 0
-0.17450468 0.061215334 0.63641906 0
-0.18735269 0.063153334 0.63649005 0
-0.18984368 0.062680334 0.63649106 0
-0.21713167 0.065207332 0.63648504 0
-0.22202368 0.064897336 0.63648605 0
-0.19200867 0.063265331 0.6365 0
-0.19043468 0.061324336 0.63640505 0
-0.19780669 0.065134332 0.63649201 0
-0.21449769 0.065559335 0.63649106 0
-0.21944669 0.065253332 0.63649005 0
-0.17581668 0.059519336 0.63642401 0
-0.15828869 0.057550333 0.63637203 0
-0.19547568 0.061212331 0.636343 0
-0.20783468 0.063892335 0.63648504 0
-0.20622168 0.063793331 0.63648903 0
-0.15423667 0.057160333 0.63636303 0
-0.19825068 0.062144332 0.63643801 0
-0.16638368 0.057568334 0.63638306 0
-0.20427768 0.061927333 0.63646501 0
-0.22390968 0.062794335 0.63646704 0
-0.17416568 0.058930337 0.636415 0
-0.22189368 0.063332334 0.63648105 0
-0.16174668 0.057818331 0.63637406 0
-0.18032569 0.059923336 0.63637501 0
-0.21612468 0.063957334 0.63649303 0
-0.16237769 0.059358336 0.63640505 0
-0.18357667 0.060805336 0.63637602 0
-0.18822768 0.059530333 0.63624603 0
-0.19417968 0.061002336 0.63634902 0
-0.17841168 0.058990337 0.63636601 0
-0.16429769 0.057549335 0.636379 0
-0.20034169 0.06104733 0.63638604 0
-0.20758767 0.061667331 0.63645506 0
-0.22606668 0.062058337 0.63645905 0
-0.22551867 0.063610338 0.63647401 0
-0.15941568 0.055522338 0.63636005 0
-0.17242368 0.057704337 0.63638002 0
-0.20156568 0.060792334 0.636379 0
-0.21236968 0.061762333 0.63645405 0
-0.22055268 0.061940335 0.636446 0
-0.21414667 0.062192336 0.63646805 0
-0.20528468 0.061260335 0.63645405 0
-0.20751569 0.059861332 0.63647401 0
-0.21572468 0.061227337 0.63645804 0
-0.16229968 0.055583335 0.63635004 0
-0.16557768 0.056087337 0.63636404 0
-0.18032768 0.057496332 0.63607401 0
-0.20210469 0.059840336 0.63641703 0
-0.17628469 0.057730332 0.63631302 0
-0.19640668 0.059134334 0.63617003 0
-0.20618868 0.059862331 0.63647401 0
-0.22216368 0.061575331 0.63645101 0
-0.16326769 0.055190332 0.63635904 0
-0.20943868 0.060284331 0.63647306 0
-0.21151768 0.059151337 0.63647205 0
-0.17159069 0.055921331 0.63631004 0
-0.18418068 0.057718337 0.63592201 0
-0.20040467 0.059101336 0.63626206 0
-0.17367367 0.055820331 0.63621604 0
-0.17560568 0.055885337 0.63615203 0
-0.20436668 0.059026331 0.63644105 0
-0.19229868 0.057781331 0.63585806 0
-0.21630467 0.059193335 0.63647002 0
-0.22343367 0.060916334 0.63646001 0
-0.22818469 0.061127335 0.63645804 0
-0.18859167 0.057984337 0.63592005 0
-0.22371069 0.059207335 0.63646704 0
-0.22570968 0.060040332 0.63647401 0
-0.18031669 0.055674337 0.63562804 0
-0.18648568 0.057521336 0.63581705 0
-0.21789367 0.060930334 0.63645506 0
-0.16457668 0.053499334 0.63637304 0
-0.16587968 0.053928331 0.63637102 0
-0.19984868 0.057473332 0.63596404 0
-0.21015967 0.057955332 0.63646203 0
-0.21371768 0.059321336 0.63646805 0
-0.15425968 0.052603334 0.63636804 0
-0.17815869 0.056097336 0.63595605 0
-0.21562168 0.057709336 0.63645005 0
-0.17027368 0.053924337 0.636352 0
-0.15465969 0.051471338 0.63637304 0
-0.16197468 0.052804336 0.63636702 0
-0.22158769 0.058982335 0.63645905 0
-0.16830768 0.053284332 0.63638204 0
-0.21234567 0.057581335 0.63644004 0
-0.15815169 0.050885335 0.63637304 0
-0.17436668 0.053871334 0.636006 0
-0.18607368 0.055133335 0.63504303 0
-0.18494268 0.054685332 0.63492501 0
-0.19074668 0.054571331 0.63470703 0
-0.18979768 0.056080334 0.635315 0
-0.19550468 0.055959336 0.63535303 0
-0.16338268 0.051275335 0.63637304 0
-0.17163168 0.052866332 0.63621205 0
-0.22839367 0.059549332 0.63646901 0
-0.15202868 0.049626336 0.63636601 0
-0.17769068 0.053087331 0.63532501 0
-0.18241867 0.054915331 0.63520604 0
-0.22435369 0.057922333 0.63645101 0
-0.16813768 0.051801331 0.63635302 0
-0.21365169 0.057917334 0.63644505 0
-0.20227268 0.055943333 0.63579404 0
-0.20564269 0.056051336 0.63612205 0
-0.17573968 0.052848332 0.63563401 0
-0.18017969 0.053034335 0.63482106 0
-0.18804967 0.055179335 0.63498902 0
-0.19785967 0.054750331 0.63498503 0
-0.15078568 0.049505331 0.63635904 0
-0.15176068 0.047826335 0.63635004 0
-0.16935268 0.051637337 0.63630104 0
-0.20660768 0.057024337 0.63631505 0
-0.21826568 0.055698335 0.636428 0
-0.20829268 0.055016331 0.63623804 0
-0.17605367 0.051112331 0.63513803 0
-0.20421268 0.053920336 0.63547903 0
-0.21373267 0.055373333 0.63643301 0
-0.22973068 0.057283334 0.63644803 0
-0.22221868 0.055256337 0.63643402 0
-0.22157767 0.057039335 0.63644201 0
-0.22786167 0.057337336 0.63644403 0
-0.15456568 0.049655333 0.63637 0
-0.19940668 0.053280331 0.63447905 0
-0.19770768 0.053609334 0.634462 0
-0.22357267 0.055218332 0.63643205 0
-0.17029968 0.049002334 0.63607204 0
-0.18218169 0.051760331 0.63378805 0
-0.19243167 0.053362332 0.63415605 0
-0.20757668 0.053807333 0.635966 0
-0.21039169 0.053901337 0.63621503 0
-0.21997067 0.055129334 0.63643104 0
-0.17854568 0.051477335 0.63457805 0
-0.18404467 0.052189335 0.63374501 0
-0.21163169 0.054780334 0.63640702 0
-0.15458368 0.046969332 0.63635802 0
-0.16837268 0.049110331 0.63630801 0
-0.18562768 0.051968336 0.63346702 0
-0.16359968 0.047305334 0.63636506 0
-0.19162968 0.051959336 0.63324702 0
-0.19426568 0.053075336 0.63405305 0
-0.22238068 0.052989334 0.63642001 0
-0.15607168 0.045892335 0.63636202 0
-0.16007468 0.047352336 0.63636202 0
-0.21643868 0.052969337 0.63641703 0
-0.18967968 0.051999331 0.63327402 0
-0.15843768 0.047240332 0.63635802 0
-0.16195668 0.046912335 0.63636804 0
-0.19566768 0.051781334 0.63323802 0
-0.21222669 0.052991331 0.63635403 0
-0.16619968 0.047851332 0.63634104 0
-0.16643669 0.049098335 0.63636005 0
-0.17494269 0.048851334 0.63487303 0
-0.22840469 0.055039331 0.636428 0
-0.15386868 0.045040332 0.63635904 0
-0.18420269 0.050660335 0.63274604 0
-0.19173267 0.050688334 0.63230604 0
-0.23030268 0.055110335 0.63643205 0
-0.17764267 0.048950337 0.63387203 0
-0.18139568 0.048990332 0.63228005 0
-0.18146768 0.050327331 0.63313103 0
-0.18749969 0.050800331 0.63252801 0
-0.21645167 0.051307335 0.63640505 0
-0.21425769 0.052791335 0.63641304 0
-0.23194568 0.053785332 0.63642704 0
-0.23063368 0.053460337 0.63642401 0
-0.16818768 0.047109336 0.63620001 0
-0.20639268 0.052079335 0.63539904 0
-0.21770768 0.051889338 0.63637501 0
-0.18566269 0.050601333 0.63248503 0
-0.19908269 0.050807334 0.63296205 0
-0.20018968 0.051801331 0.633807 0
-0.21881868 0.053239331 0.636415 0
-0.22815968 0.053191334 0.63641602 0
-0.15206568 0.044912335 0.63636005 0
-0.17374869 0.047190335 0.63489503 0
-0.19017468 0.049854331 0.631576 0
-0.23339969 0.051886335 0.63640702 0
-0.23225167 0.050662331 0.63640904 0
-0.17130068 0.046002336 0.63553303 0
-0.16947368 0.045617335 0.63594502 0
-0.21447869 0.05105333 0.63637203 0
-0.21949668 0.051639333 0.63640302 0
-0.22625467 0.051750332 0.63640302 0
-0.16351467 0.045273334 0.63637 0
-0.17602068 0.047982335 0.63417703 0
-0.18031669 0.048890337 0.63268101 0
-0.18559667 0.049398333 0.63151503 0
-0.22971568 0.051911332 0.63640201 0
-0.14952068 0.044739336 0.63636202 0
-0.15192568 0.042709336 0.63633704 0
-0.15359467 0.042959332 0.63634402 0
-0.16634369 0.045054331 0.63633502 0
-0.16172668 0.043742336 0.63639903 0
-0.19751568 0.050768331 0.63268501 0
-0.18017869 0.047920331 0.63213903 0
-0.15410969 0.041294336 0.63633806 0
-0.18754968 0.04951933 0.63143605 0
-0.22141968 0.049322337 0.63639802 0
-0.22112268 0.051661335 0.63640803 0
-0.19561768 0.049605332 0.63156605 0
-0.19040067 0.048676334 0.63048905 0
-0.21755068 0.049313337 0.63641602 0
-0.16620968 0.043882333 0.63636404 0
-0.21605568 0.04895433 0.63639504 0
-0.22367068 0.051185332 0.63641304 0
-0.23024368 0.049645334 0.63641101 0
-0.19223768 0.048824333 0.63068402 0
-0.21635169 0.047104336 0.63637304 0
-0.15154068 0.041362334 0.63632601 0
-0.18547668 0.047662333 0.62976003 0
-0.22770168 0.049706332 0.63641405 0
-0.16406868 0.041804336 0.63642901 0
-0.19219868 0.047840334 0.62955701 0
-0.19438668 0.047911331 0.629767 0
-0.23234668 0.049302332 0.63640302 0
-0.18764769 0.047873333 0.62973601 0
-0.22573668 0.048117332 0.63640803 0
-0.21807069 0.047274336 0.63640404 0
-0.15850668 0.041190334 0.63638002 0
-0.16956668 0.043048333 0.63576502 0
-0.21977468 0.049665332 0.63639504 0
-0.22361468 0.048924334 0.63640803 0
-0.16562667 0.041192334 0.63638502 0
-0.19233067 0.047112335 0.62864804 0
-0.21987069 0.046868332 0.63638204 0
-0.15053669 0.039606333 0.63633901 0
-0.15813668 0.039353333 0.636379 0
-0.21783268 0.045143336 0.63643205 0
-0.23264769 0.047538333 0.63639802 0
-0.18954268 0.046895333 0.62837905 0
-0.15020168 0.037216336 0.63632303 0
-0.16981268 0.040814333 0.63560003 0
-0.22797468 0.047093332 0.63640803 0
-0.23094268 0.047323331 0.63640201 0
-0.16045868 0.040024333 0.63640106 0
-0.18966468 0.045679335 0.62637001 0
-0.23204668 0.045853332 0.63640404 0
-0.16617969 0.037828334 0.63633204 0
-0.22560969 0.044942334 0.63640505 0
-0.23393369 0.047296334 0.63639301 0
-0.23436268 0.045899332 0.63639104 0
-0.21825269 0.043972336 0.63642401 0
-0.22364868 0.045218334 0.63640201 0
-0.22418568 0.044160336 0.63640302 0
-0.16173968 0.037428334 0.63639504 0
-0.16967869 0.039637335 0.63562304 0
-0.23224068 0.043954335 0.63639504 0
-0.15170568 0.037316334 0.63633001 0
-0.21967968 0.043264333 0.63639301 0
-0.21975867 0.045170333 0.63639504 0
-0.23413968 0.044281334 0.63639301 0
-0.15173668 0.035778336 0.63632905 0
-0.16010669 0.037508331 0.63638002 0
-0.16179168 0.035772335 0.63638902 0
-0.22780968 0.043296333 0.63639605 0
-0.22763368 0.044898335 0.63640404 0
-0.22165868 0.045667335 0.63639504 0
-0.23520768 0.043050334 0.63638401 0
-0.22220768 0.043004334 0.636392 0
-0.23092869 0.042918332 0.636392 0
-0.16624668 0.035849333 0.636343 0
-0.19016267 0.044764332 0.624367 0
-0.16966468 0.037063334 0.63567805 0
-0.22810768 0.041440334 0.636388 0
-0.22962868 0.041608334 0.63638705 0
-0.15156268 0.033212334 0.63633204 0
-0.15639468 0.035686336 0.63636202 0
-0.23125169 0.041153334 0.63638204 0
-0.22604367 0.041013334 0.63638103 0
-0.22366568 0.041374333 0.63638204 0
-0.15846668 0.033709332 0.63637406 0
-0.19040868 0.044425335 0.62337101 0
-0.15845968 0.035342336 0.63638502 0
-0.15022968 0.033071332 0.63632005 0
-0.22433469 0.039544336 0.63638002 0
-0.16320968 0.033052333 0.63637805 0
-0.19217469 0.043839335 0.62148505 0
-0.19425368 0.043753333 0.62153304 0
-0.21920168 0.039008334 0.63637704 0
-0.22225568 0.039585333 0.63637304 0
-0.16966368 0.035098337 0.63577604 0
-0.19171268 0.043617334 0.62036401 0
-0.15145268 0.031310335 0.63629603 0
-0.23386967 0.039331332 0.63636202 0
-0.16630068 0.033113334 0.63634801 0
-0.19424169 0.043545336 0.62049705 0
-0.15385169 0.031088334 0.63629401 0
-0.15788268 0.031094335 0.63633001 0
-0.19446369 0.043135334 0.61828601 0
-0.22025368 0.037230335 0.63636601 0
-0.22771668 0.038211334 0.63636804 0
-0.22859968 0.039222334 0.63637805 0
-0.18822968 0.042854331 0.61668205 0
-0.15774368 0.029818334 0.63635904 0
-0.16632168 0.030864334 0.63633102 0
-0.19548468 0.042749334 0.61655104 0
-0.15415567 0.029009335 0.63636005 0
-0.15569869 0.029219333 0.63636804 0
-0.15976568 0.029230334 0.63638306 0
-0.19332469 0.042837337 0.61641002 0
-0.16143069 0.029932335 0.63640004 0
-0.16763268 0.029814333 0.636298 0
-0.19117568 0.042524334 0.61487705 0
-0.23432969 0.037958331 0.63635504 0
-0.22611769 0.035824336 0.63637704 0
-0.22594269 0.036811333 0.63636905 0
-0.23014368 0.037041336 0.63636506 0
-0.16423768 0.029098334 0.636379 0
-0.22276868 0.037049334 0.63636702 0
-0.19312668 0.042468332 0.61496103 0
-0.23150268 0.037167333 0.636361 0
-0.22266167 0.034955334 0.636388 0
-0.21966667 0.035044335 0.63638204 0
-0.22834168 0.035163336 0.63638705 0
-0.15640768 0.027203333 0.63633901 0
-0.23417668 0.035249334 0.63636506 0
-0.23205069 0.034983333 0.636379 0
-0.16336468 0.027315333 0.63636702 0
-0.22230668 0.033238336 0.63636005 0
-0.16050668 0.027011335 0.63635504 0
-0.16839968 0.027742334 0.63634706 0
-0.18852368 0.041621335 0.61250204 0
-0.22409168 0.033875331 0.63635504 0
-0.16648068 0.027221333 0.63638306 0
-0.15447667 0.025957335 0.63634402 0
-0.19222069 0.041394334 0.61165804 0
-0.22021069 0.031968333 0.63633704 0
-0.23250268 0.033422336 0.63635606 0
-0.18978068 0.040802334 0.61049104 0
-0.19020268 0.041359335 0.61160702 0
-0.16441868 0.025553335 0.63635403 0
-0.19171868 0.040936336 0.610668 0
-0.22258069 0.031206334 0.63634902 0
-0.22932169 0.033946335 0.63637602 0
-0.23385768 0.033000335 0.63634503 0
-0.23429269 0.031839333 0.63632202 0
-0.15189068 0.023089334 0.63636005 0
-0.15412068 0.023755334 0.63636601 0
-0.16623268 0.025117334 0.63636303 0
-0.14977469 0.023111334 0.63635802 0
-0.14856368 0.022992333 0.63635504 0
-0.16784167 0.025917333 0.63635302 0
-0.16167468 0.024976334 0.63635504 0
-0.15636168 0.023666333 0.63636702 0
-0.23177367 0.031198334 0.63633901 0
-0.18782867 0.040188335 0.60951805 0
-0.15951368 0.023725335 0.63637805 0
-0.19047968 0.039751336 0.60837001 0
-0.15967669 0.021203334 0.63634706 0
-0.22223768 0.029601334 0.63639802 0
-0.23342869 0.029932335 0.63637 0
-0.15643968 0.021705333 0.63635105 0
-0.22022668 0.029028334 0.63640201 0
-0.16819368 0.023749333 0.63640404 0
-0.19236468 0.039277334 0.60774404 0
-0.16638169 0.023014333 0.63640004 0
-0.22524469 0.029145334 0.63639605 0
-0.22973469 0.029047333 0.63639402 0
-0.16467167 0.021758333 0.63636905 0
-0.19203769 0.038199335 0.606206 0
-0.23131268 0.029186334 0.63638604 0
-0.14885467 0.021152334 0.63633102 0
-0.14893068 0.019477334 0.63634104 0
-0.16040169 0.019754333 0.63635403 0
-0.22817068 0.027794335 0.63639003 0
-0.15056168 0.019649334 0.63634104 0
-0.16813467 0.021036334 0.63636506 0
-0.19009869 0.036862336 0.60452902 0
-0.19062968 0.037841335 0.60565001 0
-0.22173268 0.027002335 0.63638002 0
-0.22824368 0.026125334 0.63637602 0
-0.23023969 0.026968334 0.63636804 0
-0.23370269 0.027125334 0.63637805 0
-0.23168968 0.027030334 0.63637203 0
-0.22014669 0.025887333 0.63637102 0
-0.22425967 0.027085334 0.63638705 0
-0.15173867 0.017677333 0.63633806 0
-0.15755068 0.017671334 0.63635302 0
-0.15012369 0.016876334 0.63633305 0
-0.16179869 0.018964333 0.63636702 0
-0.16526268 0.019118333 0.63637203 0
-0.21830969 0.023719333 0.63640004 0
-0.16379967 0.017821334 0.63636601 0
-0.14940068 0.015335334 0.63633305 0
-0.16208568 0.016981333 0.63635105 0
-0.16548967 0.017686334 0.63636506 0
-0.21646369 0.022320334 0.63638604 0
-0.22028469 0.023363333 0.63639802 0
-0.23406267 0.024864335 0.63637304 0
-0.19038068 0.034912333 0.60242403 0
-0.15588568 0.015897334 0.63633806 0
-0.15862969 0.015170334 0.63634503 0
-0.16024168 0.015871335 0.63634801 0
-0.23143268 0.023694335 0.63637805 0
-0.16178869 0.015628334 0.63634002 0
-0.16800368 0.016063334 0.636352 0
-0.18926868 0.034192335 0.60188502 0
-0.14935668 0.013745334 0.636352 0
-0.15356168 0.013907334 0.63635105 0
-0.15811369 0.012957335 0.63633806 0
-0.15241568 0.014949334 0.63634205 0
-0.16431968 0.015177334 0.63634205 0
-0.22168368 0.021022335 0.63637304 0
-0.19242568 0.033380333 0.60121202 0
-0.15571268 0.013019335 0.63634104 0
-0.16844767 0.013780334 0.63638002 0
-0.19345868 0.032520331 0.60058004 0
-0.16375068 0.014005334 0.63637304 0
-0.16024569 0.013213334 0.636352 0
-0.22962068 0.019971333 0.63637406 0
-0.23115468 0.018872334 0.63638204 0
-0.22165968 0.018932333 0.63638002 0
-0.16561969 0.012040334 0.63634002 0
-0.14993268 0.012030333 0.63633305 0
-0.15373468 0.011350334 0.63632905 0
-0.15606669 0.010619334 0.63633901 0
-0.16336568 0.011592334 0.636334 0
-0.15184568 0.011313334 0.63633001 0
-0.15224868 0.0098723341 0.636343 0
-0.15807968 0.010802334 0.63633204 0
-0.16168168 0.011899333 0.63633204 0
-0.22220568 0.017909333 0.636379 0
-0.22433968 0.018846333 0.63637704 0
-0.15748268 0.0096733347 0.63634104 0
-0.19042169 0.031111334 0.59942901 0
-0.22651269 0.017792335 0.636379 0
-0.18840568 0.030344333 0.59909505 0
-0.22377068 0.016918333 0.63636905 0
-0.21841168 0.015850333 0.63635403 0
-0.21968168 0.017548334 0.63637704 0
-0.22827868 0.018990334 0.63637805 0
-0.19220968 0.031090334 0.59946901 0
-0.16037267 0.0097733345 0.63633901 0
-0.21811168 0.017785333 0.63638002 0
-0.15640467 0.0091423336 0.63634801 0
-0.23030968 0.016892334 0.63636303 0
-0.22450268 0.015649334 0.63634902 0
-0.18623768 0.028923333 0.59847701 0
-0.15833268 0.0070233336 0.63632703 0
-0.22038768 0.014767334 0.63637805 0
-0.21869968 0.013181334 0.63637704 0
-0.16442868 0.0073013343 0.63632804 0
-0.15533568 0.0072103338 0.63633204 0
-0.22452468 0.013119334 0.63636303 0
-0.16753368 0.0072513344 0.63632703 0
-0.22827768 0.013205335 0.63637203 0
-0.23260468 0.013207334 0.63636506 0
-0.15577768 0.0057173343 0.63633305 0
-0.22621869 0.012256334 0.63636506 0
-0.15335667 0.0055023339 0.63634002 0
-0.15586968 0.0040413337 0.63635403 0
-0.19441468 0.027903333 0.59787703 0
-0.15357068 0.0071203336 0.63633102 0
-0.16055468 0.0052543338 0.636334 0
-0.15837568 0.0055113342 0.636334 0
-0.23037368 0.011658334 0.63636702 0
-0.16529667 0.0053303344 0.636334 0
-0.19008069 0.026392333 0.59701204 0
-0.19280368 0.026292335 0.59701604 0
-0.15769668 0.0029993337 0.63635403 0
-0.16751868 0.0038423343 0.636316 0
-0.18865769 0.025051333 0.59657902 0
-0.22550468 0.0094403345 0.63636601 0
-0.16575168 0.0037113344 0.63634706 0
-0.19174768 0.024959333 0.596403 0
-0.15949868 0.0034543341 0.63635504 0
-0.21765968 0.0091083338 0.63636506 0
-0.22780268 0.011162334 0.63637 0
-0.23417169 0.009744334 0.63636702 0
-0.15378268 0.0012833336 0.63633901 0
-0.15432768 0.0031443341 0.63634604 0
-0.19033068 0.024097335 0.59614503 0
-0.22807068 0.0090853339 0.63637704 0
-0.23029768 0.0097463336 0.63637805 0
-0.21843168 0.0075003337 0.63635606 0
-0.18630868 0.023044333 0.59613705 0
-0.15527168 0.00094733387 0.63633901 0
-0.19361168 0.023200333 0.59610802 0
-0.23247968 0.0097323339 0.63637704 0
-0.15249068 0.00095333438 0.63633603 0
-0.16832168 0.00088433363 0.63611001 0
-0.19161168 0.023162333 0.59596503 0
-0.14793468 0.00098333415 0.63634706 0
-0.14764267 -0.00020466559 0.63634902 0
-0.15006068 -0.00078566559 0.63634604 0
-0.15222368 -0.0001716651 0.636334 0
-0.16560169 0.0017233342 0.63633806 0
-0.18854669 0.023108333 0.59602404 0
-0.22548369 0.0076103341 0.63636702 0
-0.18748568 0.021671334 0.59580201 0
-0.14854768 -0.0022136662 0.63633806 0
-0.22952467 0.0081543336 0.63637406 0
-0.22335868 0.0071843341 0.63635802 0
-0.16183868 -0.0019166656 0.63637102 0
-0.16174568 4.0333718e-05 0.636379 0
-0.22748668 0.0067263339 0.63635302 0
-0.19160669 0.021126334 0.59554601 0
-0.22174367 0.005882334 0.63635606 0
-0.16456068 0.00092133414 0.63636905 0
-0.19017968 0.021026334 0.59550405 0
-0.23422168 0.0070203338 0.63635105 0
-0.15175368 -0.0023176651 0.63632804 0
-0.15032268 -0.0020686667 0.63633603 0
-0.15632668 -0.0024196655 0.63632405 0
-0.16816267 -0.00057966635 0.63610303 0
-0.22551169 0.0059723342 0.63636702 0
-0.23410968 0.0053203339 0.636379 0
-0.15381068 -0.0026006661 0.636325 0
-0.14962968 -0.0041696653 0.63631904 0
-0.23213768 0.0055313343 0.63637203 0
-0.15580568 -0.0040626656 0.63632303 0
-0.22676069 0.0036393339 0.63637704 0
-0.22784269 0.0048203338 0.63637805 0
-0.15348168 -0.0049726665 0.63633102 0
-0.15163767 -0.0042936653 0.63632005 0
-0.22924769 0.0040883338 0.63637501 0
-0.22023368 0.0032803342 0.63635004 0
-0.22174367 0.0035163341 0.63636202 0
-0.15984468 -0.0032686666 0.63634503 0
-0.22365268 0.0029083341 0.63637 0
-0.16812268 -0.0021086652 0.63605803 0
-0.23395668 0.0040793344 0.636379 0
-0.22546369 0.0015023341 0.63635904 0
-0.22786668 0.0031813337 0.63637805 0
-0.23250169 0.0032643341 0.63638204 0
-0.18776569 0.017121334 0.59524602 0
-0.16568068 -0.0049336664 0.63631701 0
-0.16726568 -0.0042646658 0.636132 0
-0.21818468 0.0011253338 0.63634706 0
-0.15819968 -0.0049356669 0.63634503 0
-0.15422767 -0.0062226653 0.63634503 0
-0.16226768 -0.0047896653 0.63635606 0
-0.21971168 0.00085833389 0.63632905 0
-0.15619168 -0.0064146668 0.63634503 0
-0.16409668 -0.0051336661 0.63636005 0
-0.22216669 6.1333179e-05 0.63634604 0
-0.22368468 -0.00054566562 0.63634604 0
-0.22614369 0.00027233362 0.63635302 0
-0.22761768 0.0010853335 0.63635904 0
-0.22973768 -0.00044166669 0.63635302 0
-0.22978668 0.0020143343 0.63636702 0
-0.15633768 -0.0082066655 0.63634402 0
-0.15930268 -0.0063666664 0.63636506 0
-0.16976568 -0.0062346663 0.63549703 0
-0.22799568 -0.00071166642 0.63635004 0
-0.15043569 -0.0086466651 0.63632905 0
-0.16247268 -0.0067156665 0.63636905 0
-0.22065067 -0.00083566643 0.63632601 0
-0.16801368 -0.0066736657 0.63600701 0
-0.15763268 -0.0081656668 0.63636005 0
-0.18842667 0.013125334 0.595411 0
-0.18950067 0.012895335 0.59536004 0
-0.16635768 -0.008239666 0.63627702 0
-0.14693367 -0.0090826657 0.63632005 0
-0.16145468 -0.0090126656 0.63635403 0
-0.15748069 -0.010163667 0.636334 0
-0.16454168 -0.0089086667 0.63638204 0
-0.22999968 -0.0019466653 0.63634205 0
-0.22173768 -0.0021256655 0.63632005 0
-0.23038568 -0.0040866658 0.63633204 0
-0.16957068 -0.0082156658 0.63560802 0
-0.14970168 -0.013008665 0.63634002 0
-0.14965269 -0.011216667 0.63634503 0
-0.16027968 -0.010111665 0.63635504 0
-0.22531368 -0.0045646653 0.63632804 0
-0.23236768 -0.0029506665 0.636334 0
-0.22609268 -0.002669666 0.63633502 0
-0.16638067 -0.010772666 0.63629502 0
-0.22038469 -0.0048356652 0.636307 0
-0.22194268 -0.0047316663 0.63631505 0
-0.23245168 -0.004660666 0.63633806 0
-0.16800068 -0.011241665 0.63610405 0
-0.16813467 -0.012180666 0.63611102 0
-0.15240668 -0.012944667 0.63635802 0
-0.15355867 -0.012810666 0.63635105 0
-0.16020069 -0.012257665 0.63635904 0
-0.15805969 -0.013172666 0.63635504 0
-0.22389367 -0.0061596669 0.63633204 0
-0.22996368 -0.0062526669 0.63634604 0
-0.16435269 -0.012426667 0.63635403 0
