# .PCD v0.7 - Point Cloud Data file format
VERSION 0.7
FIELDS x y z rgb
SIZE 4 4 4 4
TYPE F F F F
COUNT 1 1 1 1
WIDTH 1260
HEIGHT 1
VIEWPOINT 0 0 0 1 0 0 0
POINTS 1260
DATA ascii
-0.081564337 0.010450953 0.60053003 0
-0.081882335 -0.010125048 0.60348403 0
-0.08224234 -0.0053190477 0.60271603 0
-0.082226336 -0.0032960474 0.60250199 0
-0.081432335 0.0086619528 0.601583 0
-0.081474334 -0.011475047 0.60236204 0
-0.081945337 -0.0073660472 0.602557 0
-0.081895337 0.012028953 0.60033703 0
-0.081615336 -0.00023904745 0.60126698 0
-0.081628338 -0.0042330474 0.601264 0
-0.081701338 -0.0052840477 0.60160702 0
-0.081713334 0.0085719526 0.598764 0
-0.081407338 -0.0022370475 0.59869599 0
-0.081479333 0.0057049524 0.59862304 0
-0.081416339 -0.0094390474 0.59956902 0
-0.081463337 0.0018919522 0.59742999 0
-0.081418335 -0.0041280473 0.59860802 0
-0.081422336 -0.0074560475 0.59855002 0
-0.081488334 -0.0043610474 0.59672201 0
-0.081501335 -0.0021250476 0.59664398 0
-0.082011335 -0.00019004755 0.59519601 0
-0.082202338 0.0027959526 0.59532899 0
-0.063147336 0.054034952 0.63346601 0
-0.065115333 0.053832952 0.63345903 0
-0.065346338 0.052353952 0.63345599 0
-0.067033336 0.052450955 0.63346601 0
-0.068072334 0.053517953 0.63347101 0
-0.06394434 0.051523954 0.63345599 0
-0.072153337 0.054051954 0.63348198 0
-0.073020339 0.055294953 0.63349199 0
-0.075308338 0.052573953 0.63347799 0
-0.07578934 0.053713955 0.63348502 0
-0.069737338 0.051594954 0.63347501 0
-0.078174338 0.053337954 0.63348901 0
-0.078017339 0.051912952 0.63349003 0
-0.10360333 0.055430952 0.63351399 0
-0.10200933 0.054469954 0.63350999 0
-0.083757333 0.053531952 0.63347799 0
-0.065972336 0.049716953 0.63346303 0
-0.067613333 0.050056953 0.63346899 0
-0.081486337 0.052015953 0.63348401 0
-0.07108134 0.050473955 0.63347399 0
-0.088114336 0.053564955 0.63349301 0
-0.08818534 0.052520953 0.63349599 0
-0.089611337 0.051845953 0.63349903 0
-0.089956336 0.053551953 0.63350302 0
-0.10443334 0.053854953 0.63349801 0
-0.080167338 0.051664952 0.63348603 0
-0.065878339 0.048612952 0.633452 0
-0.09240634 0.050673954 0.63350302 0
-0.10917534 0.052059952 0.63349402 0
-0.10746434 0.052744955 0.63349301 0
-0.10838033 0.054409955 0.63350302 0
-0.10970233 0.054830953 0.63350701 0
-0.12094234 0.055407953 0.63351798 0
-0.11434334 0.053658955 0.63350302 0
-0.11399134 0.052340955 0.63350302 0
-0.063945338 0.047838952 0.63343203 0
-0.074133337 0.049943954 0.63348001 0
-0.084197335 0.050527953 0.63349998 0
-0.088283338 0.049629953 0.63349301 0
-0.071575336 0.047810953 0.63345599 0
-0.089800335 0.049707953 0.63349801 0
-0.089827336 0.048178952 0.63349104 0
-0.11810733 0.053900953 0.63350803 0
-0.11989434 0.054375954 0.63350898 0
-0.081730336 0.049302954 0.63348603 0
-0.11588634 0.056127954 0.63351601 0
-0.10513633 0.052268952 0.63349903 0
-0.085880339 0.048746955 0.633488 0
-0.070009336 0.046775952 0.63345402 0
-0.077382334 0.048629954 0.63347501 0
-0.11772133 0.051924955 0.63350403 0
-0.093950339 0.050405953 0.63350403 0
-0.11895934 0.051503953 0.63350099 0
-0.073342338 0.047889955 0.63345504 0
-0.08176434 0.048144955 0.63347602 0
-0.092037335 0.047785953 0.63349003 0
-0.10986134 0.050226953 0.63350302 0
-0.071551338 0.046331953 0.63345701 0
-0.075807333 0.046367954 0.63346601 0
-0.12107533 0.052092955 0.63349903 0
-0.073326334 0.046517953 0.633461 0
-0.11150834 0.050253954 0.63350499 0
-0.093626335 0.048369955 0.63349599 0
-0.12373234 0.050679952 0.63349903 0
-0.059514336 0.044541955 0.63343799 0
-0.10375433 0.050610952 0.63350403 0
-0.057564337 0.042949952 0.63341099 0
-0.11360633 0.050345954 0.63350099 0
-0.084267333 0.046371955 0.63347602 0
-0.08610034 0.046634953 0.63348299 0
-0.090419337 0.046003953 0.63349801 0
-0.099396333 0.047817953 0.633488 0
-0.10612234 0.048644952 0.63349301 0
-0.11570734 0.050476953 0.63350201 0
-0.096567333 0.048120953 0.63349003 0
-0.10414933 0.046589952 0.63349199 0
-0.10307534 0.047834955 0.633488 0
-0.065358341 0.044381954 0.63344699 0
-0.097756334 0.048706952 0.63349104 0
-0.10786933 0.048501953 0.63349599 0
-0.10745734 0.049966954 0.63349903 0
-0.087943338 0.045866955 0.63349402 0
-0.067385338 0.044310953 0.633448 0
-0.11004333 0.047308955 0.63349104 0
-0.11821733 0.050425954 0.63349801 0
-0.11947133 0.050076954 0.63349402 0
-0.072176337 0.044826955 0.63345301 0
-0.06518434 0.042521954 0.63340902 0
-0.074165337 0.044806954 0.63346803 0
-0.076021336 0.044546954 0.63346899 0
-0.08399234 0.044557955 0.633488 0
-0.077538334 0.044032954 0.63347203 0
-0.093861334 0.046051953 0.63349199 0
-0.060244337 0.041280955 0.63340402 0
-0.063407339 0.042741954 0.63341904 0
-0.057549335 0.040636953 0.63341302 0
-0.067154333 0.042313952 0.63341302 0
-0.055984337 0.040649954 0.63340902 0
-0.091835335 0.045609955 0.63349599 0
-0.10223934 0.045834955 0.63350201 0
-0.072341338 0.042533953 0.63342202 0
-0.10571734 0.047066953 0.63349003 0
-0.12401234 0.046516955 0.63347799 0
-0.12412234 0.047696952 0.63347602 0
-0.064158335 0.040501952 0.63341999 0
-0.065712333 0.040464953 0.63341999 0
-0.074311338 0.041962955 0.63341904 0
-0.087159336 0.043900955 0.63349003 0
-0.089650333 0.043427955 0.63349104 0
-0.11693834 0.045954954 0.63348502 0
-0.12183034 0.045644954 0.63348603 0
-0.091815338 0.044012953 0.63349998 0
-0.090241335 0.042071953 0.63340503 0
-0.097613335 0.045881953 0.63349199 0
-0.11430433 0.046306953 0.63349104 0
-0.11925334 0.046000954 0.63349003 0
-0.075623333 0.040266953 0.63342398 0
-0.058095336 0.038297955 0.63337201 0
-0.095282339 0.041959953 0.63334298 0
-0.10764134 0.044639952 0.63348502 0
-0.10602833 0.044540953 0.63348901 0
-0.054043338 0.037907954 0.63336301 0
-0.098057337 0.042891953 0.63343799 0
-0.066190332 0.038315952 0.63338304 0
-0.10408434 0.042674955 0.63346499 0
-0.12371634 0.043541953 0.63346702 0
-0.073972337 0.039677955 0.63341498 0
-0.12170034 0.044079952 0.63348103 0
-0.061553337 0.038565952 0.63337404 0
-0.080132335 0.040670954 0.63337499 0
-0.11593133 0.044704955 0.63349301 0
-0.062184334 0.040105954 0.63340503 0
-0.083383337 0.041552953 0.633376 0
-0.088034339 0.040277954 0.633246 0
-0.09398634 0.041749954 0.633349 0
-0.078218333 0.039737955 0.63336599 0
-0.064104334 0.038296953 0.63337898 0
-0.10014834 0.041794952 0.63338602 0
-0.10739434 0.042414952 0.63345504 0
-0.12587334 0.042805955 0.63345903 0
-0.12532534 0.044357955 0.63347399 0
-0.059222337 0.036269955 0.63336003 0
-0.072230339 0.038451955 0.63338 0
-0.10137234 0.041539952 0.63337898 0
-0.11217634 0.042509954 0.63345402 0
-0.12035934 0.042687953 0.63344598 0
-0.11395334 0.042939954 0.63346803 0
-0.10509133 0.042007953 0.63345402 0
-0.10732234 0.040608954 0.63347399 0
-0.11553134 0.041974954 0.63345802 0
-0.062106337 0.036330953 0.63335001 0
-0.065384336 0.036834955 0.63336402 0
-0.08013434 0.038243953 0.63307399 0
-0.10191134 0.040587954 0.63341701 0
-0.076091334 0.038477954 0.633313 0
-0.096213333 0.039881952 0.63317001 0
-0.10599533 0.040609952 0.63347399 0
-0.12197034 0.042322952 0.63345098 0
-0.063074335 0.035937954 0.63335901 0
-0.10924534 0.041031953 0.63347304 0
-0.11132434 0.039898954 0.63347203 0
-0.071397334 0.036668953 0.63331002 0
-0.08398734 0.038465954 0.63292199 0
-0.10021134 0.039848953 0.63326204 0
-0.073480338 0.036567952 0.63321602 0
-0.075412333 0.036632955 0.63315201 0
-0.10417333 0.039773952 0.63344103 0
-0.092105336 0.038528953 0.63285804 0
-0.11611134 0.039940953 0.63347 0
-0.12324034 0.041663952 0.63345999 0
-0.12799133 0.041874953 0.63345802 0
-0.088398337 0.038731955 0.63292003 0
-0.12351733 0.039954953 0.63346702 0
-0.12551634 0.040787954 0.63347399 0
-0.080123335 0.036421955 0.63262802 0
-0.086292334 0.038268954 0.63281703 0
-0.11770034 0.041677952 0.63345504 0
-0.064383335 0.034246955 0.63337302 0
-0.065686338 0.034675952 0.633371 0
-0.099655338 0.038220953 0.63296402 0
-0.10996634 0.038702954 0.63346201 0
-0.11352433 0.040068954 0.63346803 0
-0.054066338 0.033350952 0.63336802 0
-0.077965334 0.036844954 0.63295603 0
-0.11542834 0.038456954 0.63345003 0
-0.07008034 0.034671955 0.63335198 0
-0.054466337 0.032218955 0.63337302 0
-0.061781339 0.033551954 0.633367 0
-0.12139434 0.039729953 0.63345903 0
-0.06811434 0.034031954 0.63338202 0
-0.11215234 0.038328953 0.63344002 0
-0.057958338 0.031632952 0.63337302 0
-0.074173339 0.034618955 0.63300598 0
-0.085880339 0.035880953 0.632043 0
-0.084749334 0.035432953 0.63192499 0
-0.090553336 0.035318952 0.63170701 0
-0.089604333 0.036827955 0.63231498 0
-0.095311336 0.036706954 0.63235301 0
-0.063189335 0.032022953 0.63337302 0
-0.071438335 0.033613954 0.63321203 0
-0.12820034 0.040296953 0.63346899 0
-0.051835336 0.030373951 0.63336599 0
-0.077497333 0.033834953 0.63232499 0
-0.082225338 0.035662953 0.63220602 0
-0.12416033 0.038669955 0.63345098 0
-0.067944333 0.032548953 0.63335299 0
-0.11345834 0.038664952 0.63344502 0
-0.10207934 0.036690954 0.63279402 0
-0.10544933 0.036798954 0.63312203 0
-0.075546339 0.033595953 0.63263398 0
-0.079986334 0.033781953 0.63182104 0
-0.087856337 0.035926953 0.631989 0
-0.097666338 0.035497952 0.63198501 0
-0.050592337 0.03025295 0.63335901 0
-0.051567338 0.028573951 0.63335001 0
-0.069159336 0.032384954 0.63330102 0
-0.10641433 0.037771955 0.63331503 0
-0.11807234 0.036445953 0.63342798 0
-0.10809933 0.035763953 0.63323802 0
-0.075860336 0.031859953 0.63213801 0
-0.10401934 0.034667954 0.63247901 0
-0.11353934 0.036120955 0.63343298 0
-0.12953734 0.038030952 0.633448 0
-0.12202534 0.036003955 0.633434 0
-0.12138434 0.037786953 0.63344198 0
-0.12766834 0.038084954 0.63344401 0
-0.054372337 0.030402953 0.63336998 0
-0.099213339 0.034027953 0.63147902 0
-0.097514339 0.034356955 0.63146198 0
-0.12337933 0.035965953 0.63343203 0
-0.070106335 0.02974995 0.63307202 0
-0.081988335 0.032507952 0.63078803 0
-0.092238337 0.034109954 0.63115603 0
-0.10738334 0.034554955 0.63296598 0
-0.11019833 0.034648955 0.63321501 0
-0.11977734 0.035876952 0.63343102 0
-0.07835234 0.032224953 0.63157803 0
-0.083851337 0.032936953 0.63074499 0
-0.11143833 0.035527952 0.633407 0
-0.054390337 0.027716951 0.633358 0
-0.068179339 0.02985795 0.63330799 0
-0.08543434 0.032715954 0.630467 0
-0.063406333 0.028052952 0.63336504 0
-0.091436334 0.032706954 0.630247 0
-0.094072334 0.033822954 0.63105303 0
-0.12218733 0.033736955 0.63341999 0
-0.055878337 0.026639951 0.633362 0
-0.059881337 0.028099952 0.633362 0
-0.11624534 0.033716954 0.63341701 0
-0.089486338 0.032746952 0.630274 0
-0.058244336 0.027987951 0.633358 0
-0.061763339 0.027659953 0.63336802 0
-0.09547434 0.032528952 0.630238 0
-0.11203334 0.033738952 0.63335401 0
-0.066006333 0.028598951 0.63334101 0
-0.066243336 0.029845951 0.63336003 0
-0.074749336 0.029598953 0.63187301 0
-0.12821133 0.035786953 0.63342798 0
-0.053675335 0.025787951 0.63335901 0
-0.084009334 0.031407952 0.62974602 0
-0.091539338 0.031435955 0.62930602 0
-0.13010934 0.035857953 0.63343203 0
-0.077449337 0.029697953 0.63087201 0
-0.081202336 0.029737951 0.62928003 0
-0.081274338 0.03107495 0.63013101 0
-0.087306336 0.031547952 0.62952799 0
-0.11625834 0.032054953 0.63340503 0
-0.11406434 0.033538952 0.63341302 0
-0.13175234 0.034532953 0.63342702 0
-0.13044034 0.034207955 0.63342398 0
-0.067994334 0.027856952 0.63319999 0
-0.10619934 0.032826953 0.63239902 0
-0.11751433 0.032636955 0.63337499 0
-0.085469335 0.031348955 0.62948501 0
-0.098889336 0.031554952 0.62996203 0
-0.099996336 0.032548953 0.63080698 0
-0.11862534 0.033986952 0.63341498 0
-0.12796634 0.033938952 0.633416 0
-0.051872335 0.025659952 0.63336003 0
-0.073555335 0.027937952 0.63189501 0
-0.08998134 0.03060195 0.62857598 0
-0.13320634 0.032633953 0.633407 0
-0.13205834 0.031409953 0.63340902 0
-0.071107335 0.026749952 0.63253301 0
-0.069280334 0.026364952 0.632945 0
-0.11428533 0.031800952 0.63337201 0
-0.11930334 0.032386955 0.633403 0
-0.12606134 0.032497954 0.633403 0
-0.063321337 0.026020952 0.63336998 0
-0.075827338 0.028729951 0.63117701 0
-0.080123335 0.029637953 0.62968099 0
-0.085403338 0.030145952 0.62851501 0
-0.12952234 0.032658953 0.63340199 0
-0.049327336 0.025486952 0.633362 0
-0.051732335 0.023456952 0.63333702 0
-0.053401336 0.023706952 0.63334399 0
-0.066150337 0.025801951 0.63333499 0
-0.061533339 0.024489952 0.63339901 0
-0.097322337 0.031515952 0.62968498 0
-0.079985335 0.028667951 0.62913901 0
-0.053916335 0.022041952 0.63333803 0
-0.087356336 0.03026695 0.62843603 0
-0.12122634 0.030069953 0.633398 0
-0.12092934 0.032408953 0.63340801 0
-0.095424339 0.030352952 0.62856603 0
-0.090207338 0.02942395 0.62748903 0
-0.11735734 0.030060953 0.633416 0
-0.066016339 0.024629952 0.63336402 0
-0.11586234 0.02970195 0.63339502 0
-0.12347734 0.031932954 0.63341302 0
-0.13005033 0.03039295 0.63341099 0
-0.092044339 0.029571952 0.627684 0
-0.11615834 0.027851952 0.63337302 0
-0.051347338 0.022109952 0.63332599 0
-0.085283339 0.028409952 0.62676001 0
-0.12750834 0.030453952 0.63341403 0
-0.063875332 0.022551952 0.63342899 0
-0.092005335 0.02858795 0.62655699 0
-0.094193339 0.028658951 0.62676698 0
-0.13215333 0.030049952 0.633403 0
-0.087454334 0.028620953 0.62673599 0
-0.12554334 0.028864952 0.63340801 0
-0.11787733 0.028021952 0.63340402 0
-0.058313336 0.021937951 0.63338 0
-0.069373339 0.023795951 0.632765 0
-0.11958133 0.030412951 0.63339502 0
-0.12342134 0.02967195 0.63340801 0
-0.065433338 0.021939952 0.633385 0
-0.092137337 0.027859952 0.62564802 0
-0.11967734 0.027615951 0.63338202 0
-0.050343338 0.020353952 0.63333899 0
-0.057943337 0.020100951 0.63337898 0
-0.11763933 0.025890952 0.63343203 0
-0.13245434 0.028285952 0.633398 0
-0.089349337 0.027642952 0.62537903 0
-0.050008338 0.017963951 0.63332301 0
-0.069619335 0.021561952 0.63260001 0
-0.12778133 0.027840951 0.63340801 0
-0.13074934 0.028070951 0.63340199 0
-0.060265336 0.020771952 0.63340104 0
-0.08947134 0.026426952 0.62336999 0
-0.13185334 0.026600951 0.63340402 0
-0.065986335 0.018575951 0.63333201 0
-0.12541634 0.025689952 0.63340503 0
-0.13374034 0.028043952 0.63339299 0
-0.13416934 0.026646951 0.63339102 0
-0.11805934 0.024719952 0.63342398 0
-0.12345534 0.025965951 0.63340199 0
-0.12399234 0.024907952 0.633403 0
-0.061546337 0.018175952 0.63339502 0
-0.069485337 0.020384952 0.63262302 0
-0.13204734 0.024701951 0.63339502 0
-0.051512338 0.018063951 0.63332999 0
-0.11948633 0.024011951 0.63339299 0
-0.11956534 0.025917951 0.63339502 0
-0.13394633 0.025028951 0.63339299 0
-0.051543336 0.016525952 0.63332903 0
-0.059913337 0.018255951 0.63338 0
-0.061598338 0.016519953 0.633389 0
-0.12761635 0.024043951 0.63339603 0
-0.12744033 0.025645953 0.63340402 0
-0.12146534 0.026414951 0.63339502 0
-0.13501434 0.023797952 0.63338399 0
-0.12201434 0.023751952 0.63339198 0
-0.13073534 0.023665952 0.63339198 0
-0.066053338 0.016596952 0.63334298 0
-0.089969337 0.025511952 0.62136698 0
-0.069471337 0.017810952 0.63267803 0
-0.12791434 0.022187952 0.63338798 0
-0.12943533 0.022355951 0.63338703 0
-0.051369336 0.013959953 0.63333201 0
-0.056201335 0.016433952 0.633362 0
-0.13105834 0.021900952 0.63338202 0
-0.12585033 0.021760952 0.63338101 0
-0.12347233 0.022121951 0.63338202 0
-0.058273338 0.014456953 0.63337404 0
-0.09021534 0.025172953 0.62037098 0
-0.058266338 0.016089952 0.633385 0
-0.050036337 0.013818952 0.63332003 0
-0.12414134 0.020291952 0.63338 0
-0.06301634 0.013799953 0.63337803 0
-0.091981336 0.024586951 0.61848503 0
-0.094060339 0.024500951 0.61853302 0
-0.11900833 0.019755952 0.63337702 0
-0.12206234 0.020332951 0.63337302 0
-0.069470339 0.015845953 0.63277602 0
-0.091519333 0.024364952 0.61736399 0
-0.051259335 0.012057953 0.63329601 0
-0.13367634 0.020078951 0.633362 0
-0.066107333 0.013860953 0.63334799 0
-0.094048336 0.024292951 0.61749703 0
-0.053658336 0.011835952 0.63329399 0
-0.057689335 0.011841953 0.63332999 0
-0.094270334 0.023882952 0.61528599 0
-0.12006034 0.017977951 0.63336599 0
-0.12752333 0.018958952 0.63336802 0
-0.12840635 0.019969951 0.63337803 0
-0.088036336 0.023601951 0.61368203 0
-0.057550337 0.010565952 0.63335901 0
-0.066128336 0.011611952 0.633331 0
-0.095291339 0.023496952 0.61355102 0
-0.053962335 0.0097569525 0.63336003 0
-0.055505335 0.0099669527 0.63336802 0
-0.059572339 0.0099779526 0.63338304 0
-0.093131334 0.023584953 0.61341 0
-0.061237335 0.010679953 0.63340002 0
-0.067439333 0.010561952 0.63329798 0
-0.09098234 0.023271952 0.61187702 0
-0.13413633 0.018705951 0.63335502 0
-0.12592433 0.016571952 0.63337702 0
-0.12574933 0.017558951 0.63336903 0
-0.12995034 0.017788952 0.63336504 0
-0.064044334 0.0098459525 0.63337898 0
-0.12257534 0.017796952 0.633367 0
-0.092933334 0.023215951 0.61196101 0
-0.13130933 0.017914951 0.63336098 0
-0.12246834 0.015702952 0.63338798 0
-0.11947334 0.015791953 0.63338202 0
-0.12814833 0.015910951 0.63338703 0
-0.056214336 0.0079509523 0.63333899 0
-0.13398334 0.015996952 0.63336504 0
-0.13185734 0.015730951 0.63337898 0
-0.063171335 0.0080629531 0.633367 0
-0.12211333 0.013985953 0.63336003 0
-0.060313337 0.0077589527 0.63335502 0
-0.06820634 0.0084899524 0.63334703 0
-0.088330336 0.022368953 0.60950202 0
-0.12389833 0.014622952 0.63335502 0
-0.066287339 0.0079689529 0.63338304 0
-0.054283336 0.0067049526 0.63334399 0
-0.092027336 0.022141952 0.60865802 0
-0.12001733 0.012715952 0.63333702 0
-0.13230933 0.014169953 0.63335603 0
-0.089587338 0.021549951 0.60749102 0
-0.090009339 0.022106951 0.60860699 0
-0.064225338 0.0063009523 0.63335401 0
-0.091525339 0.021683952 0.60766798 0
-0.12238733 0.011953953 0.633349 0
-0.12912834 0.014693952 0.633376 0
-0.13366434 0.013747952 0.63334501 0
-0.13409933 0.012586953 0.633322 0
-0.051697336 0.0038369524 0.63336003 0
-0.053927336 0.0045029521 0.63336599 0
-0.066039339 0.0058649527 0.63336301 0
-0.049581338 0.0038589526 0.633358 0
-0.048370335 0.0037399523 0.63335502 0
-0.067648336 0.0066649523 0.63335299 0
-0.061481334 0.0057239523 0.63335502 0
-0.056168336 0.0044139521 0.633367 0
-0.13158034 0.011945953 0.63333899 0
-0.087635338 0.020935953 0.60651803 0
-0.059320338 0.0044729523 0.63337803 0
-0.090286337 0.020498952 0.60536999 0
-0.059483338 0.0019509525 0.63334703 0
-0.12204434 0.010348952 0.633398 0
-0.13323534 0.010679953 0.63336998 0
-0.056246337 0.0024529526 0.63335103 0
-0.12003334 0.0097759524 0.63340199 0
-0.068000339 0.0044969525 0.63340402 0
-0.092171334 0.020024952 0.60474402 0
-0.066188335 0.0037619525 0.63340002 0
-0.12505133 0.0098929526 0.63339603 0
-0.12954134 0.0097949523 0.633394 0
-0.064478338 0.0025059523 0.63336903 0
-0.091844335 0.018946951 0.60320598 0
-0.13111934 0.0099339522 0.63338602 0
-0.048661336 0.0018999523 0.633331 0
-0.048737336 0.00022495235 0.63334101 0
-0.060208336 0.00050195237 0.63335401 0
-0.12797734 0.0085419528 0.63339001 0
-0.050368335 0.0003969525 0.63334101 0
-0.067941338 0.0017839523 0.63336504 0
-0.089905336 0.017609952 0.601529 0
-0.090436339 0.018588951 0.60264999 0
-0.12153934 0.0077499524 0.63338 0
-0.12805033 0.0068729529 0.633376 0
-0.13004634 0.0077159526 0.63336802 0
-0.13350934 0.0078729531 0.63337803 0
-0.13149634 0.0077779526 0.63337201 0
-0.11995333 0.0066349525 0.633371 0
-0.12406634 0.0078329528 0.63338703 0
-0.051545337 -0.0015750475 0.63333803 0
-0.057357337 -0.0015810475 0.63335299 0
-0.049930338 -0.0023760474 0.63333303 0
-0.061605334 -0.00028804759 0.633367 0
-0.065069333 -0.00013404759 0.63337201 0
-0.11811633 0.0044669528 0.63340002 0
-0.063606337 -0.0014310476 0.63336599 0
-0.049207337 -0.0039170478 0.63333303 0
-0.061892338 -0.0022710476 0.63335103 0
-0.065296337 -0.0015660475 0.63336504 0
-0.11627033 0.0030679523 0.63338602 0
-0.12009133 0.0041109528 0.633398 0
-0.13386934 0.0056119524 0.63337302 0
-0.090187334 0.015659953 0.599424 0
-0.055692337 -0.0033550477 0.63333803 0
-0.058436338 -0.0040820474 0.63334501 0
-0.060048334 -0.0033810474 0.63334799 0
-0.13123934 0.0044419523 0.63337803 0
-0.061595336 -0.0036240476 0.63334 0
-0.067810334 -0.0031890476 0.63335198 0
-0.089075334 0.014939954 0.598885 0
-0.049163338 -0.0055070473 0.63335198 0
-0.053368337 -0.0053450475 0.63335103 0
-0.057920337 -0.0062950477 0.63333803 0
-0.052222338 -0.0043030474 0.63334203 0
-0.064126335 -0.0040750476 0.63334203 0
-0.12149034 0.0017699522 0.63337302 0
-0.092232339 0.014127952 0.598212 0
-0.055519335 -0.0062330477 0.63334101 0
-0.068254337 -0.0054720473 0.63338 0
-0.09326534 0.013267952 0.59758002 0
-0.063557334 -0.0052470476 0.63337302 0
-0.060052335 -0.0060390476 0.63335198 0
-0.12942734 0.00071895239 0.63337404 0
-0.13096133 -0.0003800476 0.63338202 0
-0.12146634 -0.00032004761 0.63338 0
-0.065426335 -0.0072120475 0.63334 0
-0.049739335 -0.007222048 0.63333303 0
-0.053541336 -0.0079020476 0.63332903 0
-0.055873338 -0.0086330473 0.63333899 0
-0.06317234 -0.0076600472 0.63333398 0
-0.051652338 -0.0079390472 0.63332999 0
-0.052055337 -0.0093800472 0.63334298 0
-0.057886336 -0.0084500471 0.63333201 0
-0.061488338 -0.0073530478 0.63333201 0
-0.12201233 -0.0013430476 0.63337898 0
-0.12414633 -0.00040604756 0.63337702 0
-0.057289336 -0.0095790476 0.63334101 0
-0.090228334 0.011858952 0.59642899 0
-0.12631933 -0.0014600476 0.63337898 0
-0.088212334 0.011091953 0.59609503 0
-0.12357734 -0.0023340476 0.63336903 0
-0.11821833 -0.0034020476 0.63335401 0
-0.11948834 -0.0017040476 0.63337702 0
-0.12808535 -0.00026204763 0.63337803 0
-0.092016339 0.011837953 0.59646899 0
-0.060179338 -0.0094790477 0.63333899 0
-0.11791833 -0.0014670475 0.63338 0
-0.056211337 -0.010110048 0.63334799 0
-0.13011634 -0.0023600475 0.63336301 0
-0.12430933 -0.0036030475 0.633349 0
-0.086044334 0.0096709523 0.59547698 0
-0.058139335 -0.012229048 0.63332701 0
-0.12019434 -0.0044850474 0.63337803 0
-0.11850633 -0.0060710479 0.63337702 0
-0.064235337 -0.011951047 0.63332802 0
-0.055142336 -0.012042047 0.63333201 0
-0.12433134 -0.0061330479 0.63336301 0
-0.067340337 -0.012001047 0.63332701 0
-0.12808433 -0.0060470477 0.63337201 0
-0.13241133 -0.0060450472 0.63336504 0
-0.055584338 -0.013535047 0.63333303 0
-0.12602533 -0.0069960477 0.63336504 0
-0.053163335 -0.013750047 0.63334 0
-0.055676337 -0.015211048 0.63335401 0
-0.094221339 0.008650953 0.594877 0
-0.053377338 -0.012132048 0.633331 0
-0.060361337 -0.013998047 0.63333398 0
-0.058182336 -0.013741047 0.63333398 0
-0.13018033 -0.0075940471 0.633367 0
-0.065103337 -0.013922047 0.63333398 0
-0.089887336 0.0071399529 0.59401202 0
-0.092610337 0.007039953 0.59401602 0
-0.057503335 -0.016253049 0.63335401 0
-0.067325339 -0.015410047 0.63331598 0
-0.088464335 0.0057989527 0.59357899 0
-0.12531134 -0.0098120477 0.63336599 0
-0.065558337 -0.015541047 0.63334703 0
-0.091554336 0.0057069529 0.59340298 0
-0.059305336 -0.015798047 0.63335502 0
-0.11746634 -0.010144047 0.63336504 0
-0.12760934 -0.0080900472 0.63336998 0
-0.13397834 -0.0095080473 0.633367 0
-0.053589337 -0.017969048 0.63333899 0
-0.054134335 -0.016108047 0.63334602 0
-0.09013734 0.0048449524 0.59314501 0
-0.12787734 -0.010167047 0.63337702 0
-0.13010433 -0.0095060477 0.63337803 0
-0.11823834 -0.011752048 0.63335603 0
-0.086115338 0.0037919523 0.59313703 0
-0.055078335 -0.018305048 0.63333899 0
-0.093418337 0.0039479528 0.593108 0
-0.13228634 -0.0095200473 0.63337702 0
-0.052297335 -0.018299047 0.63333601 0
-0.068128332 -0.018368049 0.63310999 0
-0.091418333 0.003909952 0.59296501 0
-0.047741335 -0.018269047 0.63334703 0
-0.047449335 -0.019457048 0.633349 0
-0.049867336 -0.020038048 0.63334602 0
-0.052030336 -0.019424047 0.63333398 0
-0.065408334 -0.017529048 0.63333803 0
-0.088353336 0.0038559523 0.59302402 0
-0.12529033 -0.011642047 0.633367 0
-0.087292336 0.0024189523 0.59280199 0
-0.048354335 -0.021466048 0.63333803 0
-0.12933134 -0.011098048 0.63337404 0
-0.12316534 -0.012068047 0.633358 0
-0.061645336 -0.021169048 0.633371 0
-0.061552338 -0.019212049 0.63337898 0
-0.12729333 -0.012526047 0.63335299 0
-0.091413334 0.0018739526 0.59254599 0
-0.12155034 -0.013370047 0.63335603 0
-0.064367339 -0.018331047 0.63336903 0
-0.089986339 0.0017739523 0.59250402 0
-0.13402835 -0.012232048 0.63335103 0
-0.051560335 -0.021570047 0.63332802 0
-0.050129335 -0.021321049 0.63333601 0
-0.056133337 -0.021672048 0.63332403 0
-0.067969337 -0.019832049 0.63310301 0
-0.12531833 -0.013280047 0.633367 0
-0.13391633 -0.013932047 0.63337898 0
-0.053617336 -0.021853048 0.63332498 0
-0.049436338 -0.023422047 0.63331902 0
-0.13194433 -0.013721047 0.63337201 0
-0.055612337 -0.023315048 0.63332301 0
-0.12656733 -0.015613047 0.63337702 0
-0.12764934 -0.014432047 0.63337803 0
-0.053288337 -0.024225049 0.633331 0
-0.051444337 -0.023546048 0.63332003 0
-0.12905434 -0.015164047 0.63337499 0
-0.12004033 -0.015972048 0.63335001 0
-0.12155034 -0.015736047 0.633362 0
-0.059651338 -0.022521049 0.63334501 0
-0.12345934 -0.016344048 0.63336998 0
-0.067929335 -0.021361047 0.63305801 0
-0.13376334 -0.015173047 0.63337898 0
-0.12527034 -0.017750047 0.63335901 0
-0.12767333 -0.016071048 0.63337803 0
-0.13230833 -0.015988048 0.63338202 0
-0.087572336 -0.0021310477 0.592246 0
-0.06548734 -0.024186049 0.63331699 0
-0.067072339 -0.023517048 0.63313198 0
-0.11799134 -0.018127048 0.63334703 0
-0.058006335 -0.024188049 0.63334501 0
-0.054034337 -0.025475048 0.63334501 0
-0.062074337 -0.024042048 0.63335603 0
-0.11951834 -0.018394047 0.63332903 0
-0.055998337 -0.025667049 0.63334501 0
-0.063903339 -0.024386048 0.63336003 0
-0.12197334 -0.019191049 0.63334602 0
-0.12349133 -0.019798048 0.63334602 0
-0.12595034 -0.018980049 0.63335299 0
-0.12742433 -0.018167049 0.63335901 0
-0.12954433 -0.019694049 0.63335299 0
-0.12959334 -0.017238047 0.633367 0
-0.056144338 -0.027459048 0.63334399 0
-0.059109338 -0.025619049 0.63336504 0
-0.069572337 -0.025487049 0.63249701 0
-0.12780234 -0.019964049 0.63335001 0
-0.050242338 -0.027899047 0.63332903 0
-0.062279336 -0.025968049 0.63336903 0
-0.12045734 -0.020088049 0.63332599 0
-0.06782034 -0.025926048 0.63300699 0
-0.057439338 -0.027418049 0.63336003 0
-0.088233337 -0.0061270474 0.59241098 0
-0.089307338 -0.0063570477 0.59236002 0
-0.066164337 -0.027492048 0.633277 0
-0.046740338 -0.028335048 0.63332003 0
-0.061261337 -0.028265048 0.63335401 0
-0.057287335 -0.029416049 0.63333398 0
-0.06434834 -0.028161049 0.63338202 0
-0.12980634 -0.021199048 0.63334203 0
-0.12154434 -0.021378048 0.63332003 0
-0.13019234 -0.023339048 0.63333201 0
-0.069377333 -0.027468048 0.632608 0
-0.049508337 -0.032261048 0.63334 0
-0.049459338 -0.030469049 0.63334501 0
-0.060086336 -0.029364048 0.63335502 0
-0.12512034 -0.023817047 0.63332802 0
-0.13217434 -0.022203049 0.63333398 0
-0.12589934 -0.021922048 0.63333499 0
-0.066187337 -0.030025048 0.633295 0
-0.12019134 -0.024088047 0.63330698 0
-0.12174933 -0.023984049 0.63331503 0
-0.13225834 -0.023913048 0.63333803 0
-0.067807339 -0.030494047 0.63310403 0
-0.067941338 -0.031433046 0.633111 0
-0.052213337 -0.032197047 0.633358 0
-0.053365335 -0.032063048 0.63335103 0
-0.060007337 -0.031510048 0.63335901 0
-0.057866335 -0.032425046 0.63335502 0
-0.12370034 -0.025412049 0.63333201 0
-0.12977034 -0.025505049 0.63334602 0
-0.064159334 -0.031679049 0.63335401 0
-0.13396634 -0.026067048 0.63334501 0
-0.061423339 -0.031681046 0.63335603 0
-0.063609339 -0.033594046 0.63333499 0
-0.070255339 -0.032141048 0.63266802 0
-0.13121134 -0.025990048 0.63334298 0
-0.059581339 -0.033482049 0.63334799 0
-0.058248337 -0.033626046 0.63334203 0
-0.12218934 -0.027773049 0.633322 0
-0.056113336 -0.034101047 0.63334298 0
-0.056145336 -0.036179047 0.633362 0
-0.12430534 -0.027746048 0.63333702 0
-0.13375133 -0.027382048 0.63334703 0
-0.13156433 -0.028243048 0.63334101 0
-0.059909336 -0.036049046 0.63335901 0
-0.066263333 -0.034054048 0.63331002 0
-0.12542634 -0.028090049 0.63334101 0
-0.057701338 -0.036222048 0.63335699 0
-0.12434934 -0.030316047 0.63335299 0
-0.12605734 -0.030110048 0.63335502 0
-0.069498338 -0.033865046 0.63298202 0
-0.11953334 -0.029322049 0.63332403 0
-0.053990338 -0.037645046 0.63336098 0
-0.054071337 -0.036440045 0.63335901 0
-0.062046334 -0.035523046 0.63334799 0
-0.12195834 -0.029759048 0.63333803 0
-0.063223332 -0.035629045 0.63334799 0
-0.065975338 -0.035556048 0.63332999 0
-0.067328334 -0.036008045 0.63331199 0
-0.11989933 -0.031594045 0.63334203 0
-0.12199733 -0.031377047 0.63335198 0
-0.13145234 -0.029943049 0.63335502 0
-0.064460337 -0.037700046 0.63335001 0
-0.12948933 -0.027509049 0.63334101 0
-0.061858337 -0.038462047 0.63336003 0
-0.067203335 -0.037505046 0.63333601 0
-0.053898338 -0.039317045 0.633367 0
-0.12927034 -0.029974049 0.63335299 0
-0.069403335 -0.037942048 0.633268 0
-0.13363534 -0.033352047 0.63335502 0
-0.13246134 -0.034045048 0.63336402 0
-0.055413336 -0.040049046 0.63337898 0
-0.13371934 -0.032005046 0.63335401 0
-0.063350335 -0.040029045 0.63338 0
-0.11944833 -0.033581048 0.63334 0
-0.12154434 -0.033348046 0.63335502 0
-0.060407337 -0.039253045 0.633367 0
-0.12347534 -0.033327047 0.63335198 0
-0.057690337 -0.040215045 0.63336903 0
-0.12949833 -0.032253046 0.63335001 0
-0.12820333 -0.031890046 0.63335603 0
-0.055662338 -0.044010047 0.63338703 0
-0.12643734 -0.035805047 0.63337302 0
-0.12757233 -0.035250045 0.63336998 0
-0.06385234 -0.041276045 0.63339698 0
-0.065567337 -0.041402046 0.63339698 0
-0.13048434 -0.035946045 0.633371 0
-0.061452337 -0.041623045 0.63338 0
-0.12509634 -0.034159046 0.63335198 0
-0.12735434 -0.034297045 0.63336003 0
-0.13233434 -0.035915047 0.633371 0
-0.06616734 -0.043945048 0.63338602 0
-0.13039833 -0.037738048 0.63337898 0
-0.13355133 -0.035543047 0.63336998 0
-0.063527338 -0.044774048 0.63338703 0
-0.12409334 -0.038173046 0.63337803 0
-0.061571337 -0.043298047 0.63338101 0
-0.12192033 -0.037963048 0.63336903 0
-0.12338434 -0.039727047 0.63338703 0
-0.13347334 -0.037990045 0.63337404 0
-0.12637833 -0.039325047 0.63338304 0
-0.12814534 -0.038284045 0.63337499 0
-0.059527338 -0.045671046 0.63339502 0
-0.060421336 -0.047808047 0.63342398 0
-0.064125337 -0.046044048 0.63339502 0
-0.12061933 -0.038462047 0.63337499 0
-0.065618336 -0.046305045 0.63340104 0
-0.067207336 -0.045927048 0.633398 0
-0.13201833 -0.038285047 0.633376 0
-0.058012336 -0.047336046 0.63340801 0
-0.061749339 -0.045762047 0.63339698 0
-0.12207134 -0.040224046 0.63339901 0
-0.061662339 -0.047576047 0.63341701 0
-0.067249335 -0.047393046 0.63341302 0
-0.065519333 -0.048649047 0.63343799 0
-0.12990634 -0.039580047 0.63339001 0
-0.13156234 -0.040240046 0.63339299 0
-0.11887234 -0.041929048 0.63340598 0
-0.11910734 -0.043479048 0.63341498 0
-0.061656337 -0.049912047 0.63345504 0
-0.063682333 -0.049268045 0.63345003 0
-0.071257338 -0.048225045 0.633421 0
-0.068163335 -0.049423046 0.633452 0
-0.073467337 -0.048160046 0.63342398 0
-0.11758834 -0.043367047 0.63341302 0
-0.069608338 -0.047487047 0.63340902 0
-0.063283339 -0.051168047 0.63346201 0
-0.074134335 -0.049714047 0.63345999 0
-0.062174335 -0.051844046 0.63346702 0
-0.069817334 -0.049709048 0.63345402 0
-0.071638338 -0.049912047 0.63345903 0
-0.075877339 -0.049220048 0.63345402 0
-0.079695337 -0.050072048 0.63346601 0
-0.077335335 -0.049449045 0.633448 0
-0.075763337 -0.047318045 0.63339198 0
-0.12309834 -0.044371046 0.63341802 0
-0.12212534 -0.043783046 0.63341403 0
-0.066072337 -0.050173048 0.63345402 0
-0.08170934 -0.049591046 0.63344502 0
-0.11605134 -0.046135046 0.63343 0
-0.072313339 -0.052340046 0.63347101 0
-0.11779234 -0.046146046 0.63342398 0
-0.077877335 -0.051580045 0.63346601 0
-0.067689337 -0.052565046 0.63347203 0
-0.070030339 -0.051566046 0.63347 0
-0.076281339 -0.052119046 0.63347101 0
-0.11412133 -0.047388047 0.63343 0
-0.11396234 -0.046317045 0.633425 0
-0.11603634 -0.048448045 0.633448 0
-0.10008234 -0.049370047 0.63344103 0
-0.11947133 -0.046441045 0.63342303 0
-0.11818434 -0.047366045 0.63343 0
-0.070575334 -0.053578045 0.63348299 0
-0.074154332 -0.054105047 0.63348103 0
-0.075466335 -0.053887047 0.63348198 0
-0.077786334 -0.053852048 0.63348001 0
-0.068072334 -0.053913046 0.63348901 0
-0.089808337 -0.051515047 0.63347501 0
-0.10556833 -0.049584046 0.63345003 0
-0.12146033 -0.048445046 0.63344502 0
-0.12601434 -0.048306048 0.63344598 0
-0.12134933 -0.049804047 0.63346398 0
-0.088264339 -0.053979047 0.633479 0
-0.087431334 -0.052397046 0.63347304 0
-0.091519333 -0.051323045 0.63348299 0
-0.10989334 -0.049409047 0.63345599 0
-0.11617933 -0.049588047 0.633461 0
-0.067769334 -0.055370048 0.63350403 0
-0.079363339 -0.053657047 0.63347304 0
-0.071929336 -0.055491045 0.63349903 0
-0.12405234 -0.049993046 0.63346499 0
-0.075446337 -0.055569045 0.63349301 0
-0.085190333 -0.053703047 0.63347203 0
-0.085331336 -0.051419046 0.63346303 0
-0.10549334 -0.053197045 0.63347501 0
-0.092330337 -0.053963047 0.633479 0
-0.10182533 -0.051413048 0.63346499 0
-0.11236834 -0.049701046 0.63346398 0
-0.11159134 -0.052234046 0.63348198 0
-0.11380933 -0.049315047 0.63345999 0
-0.11356534 -0.052565046 0.63348401 0
-0.12333934 -0.051674046 0.633479 0
-0.12213233 -0.051388048 0.63348103 0
-0.11571734 -0.051241048 0.63347304 0
-0.11553134 -0.053459045 0.63348401 0
-0.10781734 -0.051974047 0.63346899 0
-0.10962434 -0.051896047 0.63347602 0
-0.089856334 -0.054587048 0.63348502 0
-0.10023633 -0.053743046 0.63348001 0
-0.11824033 -0.053691048 0.63348502 0
-0.11837034 -0.052189045 0.63347703 0
-0.10150534 -0.054306045 0.63348502 0
-0.11726934 -0.049698047 0.63345903 0
-0.068138339 -0.057649046 0.63350999 0
-0.069070339 -0.055827048 0.633506 0
-0.11344533 -0.053911045 0.63348603 0
-0.11217333 -0.053298045 0.63348001 0
-0.069645338 -0.058200046 0.63351303 0
-0.079301335 -0.055897046 0.63350201 0
-0.074263334 -0.057637047 0.63350898 0
-0.10398534 -0.054177046 0.63348103 0
-0.10408033 -0.056003045 0.63350403 0
-0.06616734 -0.058017045 0.63350499 0
-0.096032336 -0.055285048 0.63349503 0
-0.10597034 -0.055274047 0.63349903 0
-0.10230034 -0.055380046 0.63349998 0
-0.12350634 -0.053337045 0.63348001 0
-0.10141733 -0.057087045 0.63350701 0
-0.12218134 -0.054109048 0.63349402 0
-0.11626133 -0.055813048 0.63350701 0
-0.11740433 -0.055691045 0.63350403 0
-0.071342334 -0.059615046 0.63351899 0
-0.099942334 -0.056123048 0.63350302 0
-0.11026834 -0.055490047 0.63350099 0
-0.11117534 -0.055512045 0.63350099 0
-0.11408034 -0.056062046 0.63350201 0
-0.11341534 -0.057383046 0.63350999 0
-0.11962934 -0.054091047 0.63349199 0
-0.11992934 -0.055357046 0.63349998 0
-0.10764134 -0.058037046 0.63350803 0
-0.10417834 -0.057751045 0.633506 0
-0.12134534 -0.055387046 0.63349998 0
-0.10585734 -0.057357047 0.633506 0
-0.07375434 -0.062060047 0.63352501 0
-0.073513336 -0.063372046 0.63352901 0
-0.10555234 -0.059439048 0.63350803 0
-0.11224134 -0.057309046 0.63351101 0
-0.11992834 -0.058145046 0.63350803 0
-0.11032134 -0.060313046 0.63352501 0
-0.11191234 -0.060071047 0.63352799 0
-0.11624934 -0.058300048 0.63351303 0
-0.10815933 -0.059628047 0.63351798 0
-0.11757934 -0.057991046 0.63350898 0
-0.11329034 -0.059957046 0.63352501 0
-0.11024634 -0.061734047 0.633533 0
-0.11199134 -0.061754048 0.633533 0
-0.10549334 -0.061708048 0.633524 0
-0.11373734 -0.061773047 0.633533 0
-0.11522934 -0.061408047 0.63353598 0
-0.10753134 -0.062137045 0.63352203 0
-0.11545834 -0.059256047 0.63351899 0
-0.10990234 -0.063229047 0.63352698 0
-0.10764934 -0.063678049 0.63352299 0
-0.11736534 -0.0073300479 0.63336402 0
-0.094067335 -0.0083670476 0.592942 0
-0.10795633 0.014113952 0.63095903 0
-0.091738336 -0.007462048 0.632595 0
-0.10038034 -0.014310047 0.60277098 0
-0.094062336 0.020846952 0.60638601 0
-0.095379338 0.020168953 0.60539198 0
-0.086413339 0.022080952 0.60925204 0
-0.081998333 -0.019301048 0.60150301 0
-0.083525337 0.012069953 0.61521399 0
-0.081816338 0.014237952 0.61845398 0
-0.083114333 -0.0084440475 0.59419298 0
-0.079299338 -0.023422047 0.62459302 0
-0.088238336 -0.0082270475 0.592794 0
-0.087646335 -0.011996048 0.59388 0
-0.089443333 -0.013718047 0.59450299 0
-0.092077337 -0.022211049 0.600425 0
-0.089332335 -0.048200045 0.63338602 0
-0.10994234 -0.0034630476 0.63337302 0
-0.071142338 0.021431951 0.63204598 0
-0.071349338 -0.043999046 0.633385 0
-0.084065333 -9.047566e-06 0.63319498 0
-0.082837336 0.022887953 0.61847299 0
-0.083262339 0.022711951 0.61541402 0
-0.082440339 0.0096209524 0.59772599 0
-0.079254337 -0.057693046 0.63350803 0
-0.078400336 -0.033253048 0.62932402 0
-0.10036834 -0.023456048 0.61529303 0
-0.10366034 0.019695953 0.62643403 0
-0.11736433 0.018604951 0.633358 0
-0.083829336 0.0062399525 0.60691303 0
-0.087393336 -0.015997048 0.61343002 0
-0.089363337 -0.015753048 0.61312801 0
-0.09204834 -0.016114049 0.614573 0
-0.091268338 -0.015682047 0.61326003 0
-0.084150337 -0.015531047 0.61134899 0
-0.086443335 -0.014358047 0.61067998 0
-0.083873339 -0.013911047 0.60886699 0
-0.085299335 -0.013445048 0.60930598 0
-0.087181337 -0.015040047 0.61167103 0
-0.098211333 -0.017636048 0.61551499 0
-0.097295336 -0.017617049 0.61856103 0
-0.09239734 -0.016924048 0.61750698 0
-0.094350338 -0.017153047 0.61861002 0
-0.083407335 -0.0094500473 0.60526699 0
-0.083737336 -0.010539047 0.606152 0
-0.084032334 -0.012029047 0.60736698 0
-0.099182338 -0.014711048 0.60826701 0
-0.097908333 -0.015694048 0.611242 0
-0.090154335 -0.013753047 0.61020398 0
-0.092217334 -0.013179047 0.60970801 0
-0.094389334 -0.014204048 0.61075401 0
-0.081607334 -0.020325048 0.615224 0
-0.09876734 -0.024666049 0.60601401 0
-0.099076338 -0.025200048 0.60763198 0
-0.095282339 0.0099229524 0.61251503 0
-0.092447333 0.0092929527 0.61183798 0
-0.09902034 0.010672953 0.61046803 0
-0.095277339 0.0088769523 0.610982 0
-0.095416337 0.011283953 0.61558902 0
-0.078085333 -0.059300046 0.63351303 0
-0.082750335 -0.026963048 0.611992 0
-0.083591335 -0.024951048 0.60562903 0
-0.082239337 -0.023315048 0.60554999 0
-0.082681336 -0.020993048 0.60176003 0
-0.078120336 0.010621953 0.62952 0
-0.082100339 0.012480953 0.62347603 0
-0.081743337 0.0078749526 0.60510999 0
-0.10007934 -0.018325048 0.62343401 0
-0.099252336 -0.018384047 0.62159902 0
-0.095267341 -0.014365047 0.627671 0
-0.094298333 -0.015159047 0.62647998 0
-0.099876337 -0.019550048 0.61451399 0
-0.089354336 -0.0062130475 0.63298398 0
-0.08936134 -0.0088950479 0.63204402 0
-0.09109734 -0.015810048 0.62475103 0
-0.08819934 -0.0053150477 0.63320899 0
-0.099932335 -0.017425047 0.60938102 0
-0.10031034 -0.018230047 0.60734302 0
-0.10122534 0.027445951 0.627801 0
-0.097011335 0.025281951 0.621934 0
-0.09546034 0.026859952 0.62448204 0
-0.096198335 0.021409951 0.60777402 0
-0.076763339 -0.029395048 0.62875599 0
-0.077708334 -0.026170049 0.62695503 0
-0.077775337 0.017929953 0.62699902 0
-0.081396334 0.016368952 0.61359 0
-0.081777334 -0.023472048 0.60740799 0
-0.081487335 0.013918952 0.61147404 0
-0.081550337 -0.019405048 0.60340899 0
-0.081460334 -0.017547049 0.603396 0
-0.081412338 0.012664952 0.606848 0
-0.081419334 0.011891953 0.60540998 0
-0.081565335 -0.014231048 0.59940404 0
-0.081422336 0.0038049526 0.60053903 0
-0.081423335 0.0058929529 0.60044503 0
-0.081436336 0.0010119525 0.59932601 0
-0.081417337 0.0037889525 0.59933203 0
-0.082181334 -0.0083560478 0.59530199 0
-0.096042335 -0.061109047 0.63352698 0
-0.095307335 -0.058187045 0.63351202 0
-0.093346335 -0.057560045 0.63350999 0
-0.087881334 -0.059695046 0.63350898 0
-0.09124434 -0.056042045 0.63350302 0
-0.083444335 -0.059633046 0.63351399 0
-0.099748336 -0.025741048 0.61139703 0
-0.097840339 -0.026866049 0.60893303 0
-0.09899734 -0.022923049 0.60376602 0
-0.10252634 -0.0034480477 0.63338304 0
-0.095378339 -0.0042270478 0.63326699 0
-0.094242334 -0.0034570475 0.63335603 0
-0.097381338 -0.0013240476 0.63326204 0
-0.10420433 0.0022099523 0.63307703 0
-0.095262334 -0.0001530475 0.633156 0
-0.095457338 0.0020269526 0.63264501 0
-0.093269333 0.0018179526 0.63269103 0
-0.09900634 -0.016179048 0.59781098 0
-0.10315233 0.0066879531 0.63152099 0
-0.094471335 -0.016741049 0.59631401 0
-0.094105333 0.005788953 0.63070202 0
-0.097952336 -0.012031048 0.59478599 0
-0.10612134 0.011594953 0.63060099 0
-0.10920133 0.017683951 0.63136703 0
-0.10214534 0.012669953 0.62659103 0
-0.095527336 -0.0093240477 0.59323698 0
-0.098610334 -0.0083030472 0.59413701 0
-0.076269336 0.024092952 0.62937099 0
-0.078713335 0.023627952 0.62692899 0
-0.087415338 0.026825951 0.62431002 0
-0.088232338 0.026159951 0.62305498 0
-0.073391333 0.013512953 0.63131201 0
-0.08727134 0.024655951 0.61942399 0
-0.071337335 0.0098899528 0.63276303 0
-0.086376339 0.023440951 0.61357999 0
-0.07330434 0.0059779529 0.63298398 0
-0.07720834 0.0054799523 0.63238204 0
-0.076189339 0.0045609521 0.63283098 0
-0.074137338 0.0037739526 0.63320899 0
-0.068239339 0.00074695237 0.63336998 0
-0.072057337 0.0017249526 0.633362 0
-0.072372332 0.00064695254 0.63337404 0
-0.068140335 -0.0011160475 0.63337499 0
-0.073935337 -0.0023270475 0.63338703 0
-0.077514336 -0.0015610475 0.63340402 0
-0.079300337 -0.0015290475 0.63338399 0
-0.081301339 -0.0014370475 0.63337201 0
-0.070021339 -0.0061970474 0.63336301 0
-0.085969336 -0.00034604757 0.63321102 0
-0.08383134 0.015965952 0.601107 0
-0.07630834 -0.0061580474 0.63331103 0
-0.086352333 0.015404954 0.59957403 0
-0.070094332 -0.010479048 0.63332003 0
-0.078451335 -0.0080130473 0.63300103 0
-0.06944634 -0.012237047 0.63326204 0
-0.07434234 -0.011586048 0.632761 0
-0.083080336 -0.013498047 0.62926 0
-0.084221333 -0.012471047 0.62997603 0
-0.084022336 0.0078549525 0.59524798 0
-0.085410334 -0.013589047 0.62874001 0
-0.075875334 -0.022378048 0.62915301 0
-0.086087339 0.00067095249 0.592583 0
-0.087264337 0.00054195244 0.59246999 0
-0.071209334 -0.030406049 0.63215798 0
-0.075374335 -0.026499048 0.62935299 0
-0.074849337 -0.028583048 0.63001001 0
-0.085299335 -0.0053600473 0.59262401 0
-0.073731333 -0.043335047 0.63333499 0
-0.076249339 -0.045886047 0.63336402 0
-0.081431337 -0.057399046 0.633506 0
-0.11158834 -0.047439046 0.63342601 0
-0.11436134 -0.042220045 0.63339698 0
-0.11002634 -0.046329048 0.63341701 0
-0.11000134 -0.044177048 0.63340104 0
-0.10360733 -0.043588046 0.633039 0
-0.11624634 -0.030188048 0.63327098 0
-0.10737434 -0.040060047 0.63288599 0
-0.099313334 -0.047432046 0.63334203 0
-0.10141134 -0.045452047 0.633174 0
-0.10118034 -0.044056047 0.63298398 0
-0.11337234 -0.030263048 0.63289303 0
-0.097272336 -0.047271047 0.633169 0
-0.096281335 -0.046231046 0.63308799 0
-0.09820734 -0.043440048 0.63270301 0
-0.10413934 -0.035943046 0.63095903 0
-0.082130335 -0.059483048 0.63351899 0
-0.082514338 -0.064154051 0.633533 0
-0.09742634 -0.041581046 0.63208699 0
-0.095469333 -0.044127047 0.632752 0
-0.09213534 -0.047214046 0.63325399 0
-0.094238333 -0.043506045 0.63259202 0
-0.09008234 -0.045470048 0.633048 0
-0.088063337 -0.047380045 0.63328403 0
-0.086207338 -0.047477048 0.63330203 0
-0.093798339 -0.037831046 0.62994301 0
-0.08815334 -0.039620046 0.63103598 0
-0.085119337 -0.043855045 0.63273901 0
-0.09035334 -0.038350046 0.63019603 0
-0.087548338 -0.038633045 0.630458 0
-0.092267334 -0.035202045 0.62777102 0
-0.094472334 -0.032412048 0.62439001 0
-0.089447334 -0.036182046 0.62864202 0
-0.11620134 -0.0035220475 0.63337201 0
-0.11337633 -0.0036860476 0.63336098 0
-0.084159337 -0.038403045 0.63053298 0
-0.080312334 -0.039252046 0.631612 0
-0.11617634 0.0043959524 0.63340402 0
-0.11143333 -0.0020020476 0.63339502 0
-0.095142335 -0.029713048 0.617365 0
-0.10807034 1.6952399e-05 0.63340998 0
-0.10999234 0.00072195241 0.633394 0
-0.11598633 0.012682953 0.63331103 0
-0.11537234 0.010632953 0.63336599 0
-0.11808634 0.013829953 0.63336402 0
-0.11726333 0.016451951 0.633349 0
-0.10616533 0.0056489529 0.63265502 0
-0.094108336 -0.025780048 0.60520202 0
-0.11334433 0.016551951 0.63294202 0
-0.093446337 -0.023353048 0.60178202 0
-0.11066434 0.017675951 0.63205302 0
-0.093286335 -0.021546049 0.59982103 0
-0.093387336 -0.020136049 0.59856403 0
-0.090349339 -0.015417047 0.59531701 0
-0.091444336 -0.011254047 0.59344304 0
-0.092247337 -0.0073630475 0.59258401 0
-0.089469336 -0.0094390474 0.59299499 0
-0.092161335 -0.0054340474 0.59225702 0
-0.092168339 -0.0022950475 0.59209299 0
-0.079296336 -0.037346046 0.63103598 0
-0.075241335 -0.032128047 0.63067698 0
-0.086111337 -0.029674048 0.61745501 0
-0.093263336 -0.029844048 0.61735201 0
-0.086239338 -0.029365048 0.61546701 0
-0.091325335 -0.029637048 0.61546004 0
-0.087321334 0.0018589527 0.63267702 0
-0.082197338 0.0046919528 0.63183498 0
-0.084166333 0.0046619521 0.63162398 0
-0.088045336 -0.028811049 0.61221802 0
-0.085327335 -0.028011048 0.610493 0
-0.088329338 0.0057939524 0.63062602 0
-0.086069338 0.0058419527 0.63070399 0
-0.084670335 0.0071409531 0.629852 0
-0.087359339 -0.027539048 0.608612 0
-0.091898337 -0.027869048 0.60897201 0
-0.09035334 -0.027897049 0.60893399 0
-0.089975335 -0.027204048 0.60753 0
-0.091504335 -0.027216049 0.607539 0
-0.086554334 0.011094953 0.62377101 0
-0.09536434 0.011155953 0.62352198 0
-0.094171338 0.011278952 0.62242603 0
-0.083895333 0.012183953 0.62055802 0
-0.085216336 0.011922953 0.61940002 0
-0.096227333 0.011801952 0.62051803 0
-0.088236339 -0.020191047 0.59859103 0
-0.089158334 0.011353953 0.61669701 0
-0.085352339 0.011460952 0.615628 0
-0.095340334 0.011652953 0.61749703 0
-0.086545333 0.011124953 0.61512601 0
-0.093304336 0.011201953 0.615969 0
-0.09017434 -0.018008048 0.59683001 0
-0.092211336 0.010658952 0.614568 0
-0.087996334 -0.016707048 0.59620202 0
-0.088149339 0.0093939528 0.61157703 0
-0.10316233 -0.025187049 0.62577003 0
-0.10214633 0.015851952 0.62464702 0
-0.10169734 0.017745951 0.62314403 0
-0.098394334 0.012483953 0.62140101 0
-0.10046834 0.017630951 0.61736 0
-0.099988334 -0.026223049 0.61542201 0
-0.10033333 0.015727952 0.613478 0
-0.10027634 0.014459952 0.61147201 0
-0.10034633 -0.021531049 0.60734499 0
-0.10034734 0.015894951 0.60657299 0
-0.10033233 0.012678953 0.606691 0
-0.10034233 0.013801952 0.60683298 0
-0.099576339 0.0021159525 0.60323101 0
-0.099474341 -0.0034910475 0.60246903 0
-0.10040534 -0.010222048 0.601493 0
-0.10039434 -0.011467047 0.60128999 0
-0.10025334 0.00069195242 0.60134798 0
-0.10040633 0.0038699524 0.60060203 0
-0.10041734 0.0040309522 0.59948099 0
-0.10040334 -0.0013230476 0.59927702 0
-0.10045233 -0.0081550479 0.59938103 0
-0.10040934 -0.00014304766 0.59866601 0
-0.10035734 0.0057679527 0.59845603 0
-0.10039434 -0.0021890476 0.59732002 0
-0.10001834 -0.0012410475 0.59551799 0
-0.099944338 -0.0053580478 0.595469 0
-0.099652335 0.0017199523 0.59512401 0
-0.11022434 0.030687952 0.63287103 0
-0.10245134 0.032026954 0.63114703 0
-0.10536633 0.02974795 0.63120103 0
-0.11342233 0.025617952 0.63301903 0
-0.10192334 0.028543951 0.62898803 0
-0.11429134 0.022803951 0.63307399 0
-0.10259634 0.026954953 0.62838298 0
-0.11745634 0.020572951 0.63336301 0
-0.10015833 0.019698951 0.61326301 0
-0.10009034 0.018593952 0.60945404 0
-0.09961234 0.015940951 0.60339499 0
-0.10005733 0.013667953 0.60238701 0
-0.10997733 -0.0073760478 0.63337803 0
-0.10336234 -0.0063420478 0.633304 0
-0.10737734 -0.0082040476 0.63328403 0
-0.10024533 0.010690953 0.60057104 0
-0.090006337 -0.0042730477 0.63329703 0
-0.087438338 -0.0034990476 0.633376 0
-0.095275335 -0.0060940478 0.63308203 0
-0.10735334 -0.0098510478 0.63305598 0
-0.09817934 -0.0080060475 0.632635 0
-0.10332134 -0.0095380479 0.63261199 0
-0.10820533 -0.011581047 0.63286602 0
-0.11536434 -0.013248047 0.63334703 0
-0.10009734 0.0086609526 0.59852898 0
-0.095014334 -0.0089690471 0.632101 0
-0.10846934 -0.013174048 0.63263601 0
-0.11193934 -0.015612047 0.63293803 0
-0.10214834 -0.012355047 0.63113999 0
-0.11345134 -0.016214048 0.63309902 0
-0.11721934 -0.020174049 0.63331699 0
-0.10640134 -0.017349048 0.63063598 0
-0.097258337 0.0026619525 0.59333003 0
-0.10922734 -0.020482048 0.63149899 0
-0.11402534 -0.024279049 0.63286203 0
-0.098856337 -0.00041304762 0.59388798 0
-0.10142133 -0.020243049 0.62363398 0
-0.10392034 -0.023391047 0.62685901 0
-0.10139234 -0.022395048 0.62255698 0
-0.094192334 -0.055484045 0.63348901 0
-0.078389339 -0.061849046 0.63353401 0
-0.075955339 -0.062899046 0.63353002 0
-0.076330334 -0.061458047 0.63352799 0
-0.082085334 -0.035655048 0.62913704 0
-0.084682338 -0.034975048 0.62786603 0
-0.083596334 -0.029084049 0.61859 0
-0.082590334 -0.027214048 0.61353999 0
-0.081761338 -0.024045048 0.60863703 0
-0.086058334 -0.021739049 0.60022104 0
-0.082488336 -0.015114048 0.59760702 0
-0.080586337 0.019730952 0.62155503 0
-0.083480336 -0.016328048 0.62538403 0
