# .PCD v0.7 - Point Cloud Data file format
VERSION 0.7
FIELDS x y z rgb
SIZE 4 4 4 4
TYPE F F F F
COUNT 1 1 1 1
WIDTH 1305
HEIGHT 1
VIEWPOINT 0 0 0 1 0 0 0
POINTS 1305
DATA ascii
0.027037002 -0.12510672 0.69836003 0
0.094525002 -0.14178573 0.69838202 0
0.030259002 -0.13798273 0.69834203 0
0.089392006 -0.15321672 0.69838798 0
0.034963004 -0.15323572 0.698403 0
0.034835003 -0.15763673 0.69842398 0
0.032665003 -0.15908372 0.698434 0
0.036849 -0.16313572 0.69848001 0
0.063202001 -0.12304972 0.65863103 0
0.056308001 -0.14642373 0.69361502 0
0.061187003 -0.10134472 0.69030398 0
0.071118005 -0.10030872 0.68838102 0
0.044483002 -0.14007372 0.69750202 0
0.062117003 -0.14172173 0.68371302 0
0.081007004 -0.10278472 0.69667602 0
0.065149002 -0.12653573 0.67661798 0
0.067039005 -0.12668572 0.67670202 0
0.061055001 -0.12874372 0.68246198 0
0.060201 -0.12851173 0.68054098 0
0.062311001 -0.12867773 0.68238401 0
0.063135006 -0.12783472 0.67958301 0
0.061265003 -0.12789972 0.67935002 0
0.060315002 -0.12684073 0.676687 0
0.058511004 -0.12605673 0.67446798 0
0.061182003 -0.12596872 0.675717 0
0.058432002 -0.12820072 0.677549 0
0.067215003 -0.12476072 0.67456299 0
0.063421004 -0.12500972 0.67484003 0
0.058398001 -0.10074972 0.67733103 0
0.062098004 -0.10237272 0.676723 0
0.059081003 -0.10182472 0.67635703 0
0.07175 -0.13850872 0.67289001 0
0.071309999 -0.13644072 0.66908503 0
0.073516004 -0.13527672 0.66943401 0
0.072831005 -0.13470572 0.667817 0
0.07209 -0.12658472 0.66074401 0
0.073011003 -0.12506972 0.66062403 0
0.073091999 -0.12202372 0.65952599 0
0.073403999 -0.10017373 0.68937999 0
0.078850001 -0.098947726 0.69353902 0
0.08123 -0.099234723 0.695467 0
0.073072001 -0.099701725 0.68767703 0
0.075574003 -0.098472722 0.68921703 0
0.072632998 -0.099457726 0.68431199 0
0.073339 -0.10664272 0.67058998 0
0.073706999 -0.098774724 0.68153298 0
0.072420999 -0.10363273 0.67371398 0
0.074329004 -0.098004721 0.68167102 0
0.074149005 -0.10690072 0.66941303 0
0.074395001 -0.10492872 0.67017901 0
0.074056 -0.098819725 0.67958701 0
0.074741006 -0.097612724 0.68000501 0
0.073905006 -0.10088372 0.67529303 0
0.074532002 -0.099284723 0.67637402 0
0.074255005 -0.09923172 0.677607 0
0.074683003 -0.10203172 0.67174 0
0.074530005 -0.10109773 0.67336798 0
0.074882999 -0.097830728 0.67768699 0
0.056434002 -0.12519772 0.69463301 0
0.055297002 -0.12971573 0.69057 0
0.057243001 -0.12226972 0.69655001 0
0.055943001 -0.12686172 0.69327801 0
0.059339002 -0.12550472 0.69357103 0
0.0572 -0.12818672 0.69074702 0
0.058014002 -0.12633772 0.69293803 0
0.058912002 -0.12386772 0.69523102 0
0.058181003 -0.12727672 0.69160903 0
0.058350001 -0.12790172 0.69052202 0
0.060217001 -0.12187372 0.69652498 0
0.060378 -0.12317672 0.69566 0
0.058320001 -0.12916872 0.68734401 0
0.056609001 -0.13135672 0.68447 0
0.060337003 -0.12693772 0.69150698 0
0.060110003 -0.12802172 0.68941098 0
0.058501001 -0.12947972 0.685655 0
0.057567 -0.13026072 0.68349499 0
0.060019001 -0.12864773 0.68749899 0
0.063071005 -0.12072273 0.69703102 0
0.062955 -0.12204472 0.69627202 0
0.063210003 -0.12480073 0.69402099 0
0.056996003 -0.13093573 0.68163699 0
0.057394002 -0.13007472 0.68023401 0
0.065142006 -0.12188073 0.696293 0
0.056197003 -0.13198672 0.67750102 0
0.064089999 -0.12671572 0.69144499 0
0.062309001 -0.12817672 0.68850899 0
0.065244004 -0.12513472 0.693492 0
0.056139 -0.13191772 0.67569101 0
0.062120002 -0.12866972 0.68627203 0
0.066112004 -0.12666672 0.69140798 0
0.056967001 -0.12980573 0.67744398 0
0.056773003 -0.12971072 0.67645597 0
0.056137003 -0.13108072 0.67369598 0
0.068139002 -0.11902572 0.697644 0
0.068220004 -0.12502073 0.693793 0
0.069414005 -0.12059272 0.69709903 0
0.056729004 -0.12785472 0.673603 0
0.056254003 -0.12786572 0.67051399 0
0.056835003 -0.12584372 0.67170203 0
0.056304 -0.081682727 0.69424403 0
0.055708002 -0.080618724 0.69514799 0
0.056542002 -0.12509373 0.67036998 0
0.057242002 -0.083877727 0.691917 0
0.057342 -0.08646372 0.68875504 0
0.059172001 -0.084360719 0.690543 0
0.057112001 -0.087912723 0.68665999 0
0.059256002 -0.083305724 0.691845 0
0.058413003 -0.085345723 0.68950099 0
0.056755003 -0.088907719 0.68546999 0
0.059189003 -0.085848719 0.68825603 0
0.056826003 -0.089625724 0.68347299 0
0.056991003 -0.089709722 0.68226999 0
0.056394003 -0.091141723 0.68041098 0
0.062268004 -0.085507721 0.68811899 0
0.062319003 -0.08474572 0.68948102 0
0.060197003 -0.086868726 0.68535 0
0.061243001 -0.086280726 0.68660903 0
0.057281002 -0.090072721 0.67848802 0
0.060345002 -0.087621719 0.68242502 0
0.056913003 -0.091944724 0.674375 0
0.060269002 -0.087955721 0.68028802 0
0.058443002 -0.089143723 0.67771399 0
0.059449002 -0.088467725 0.67885303 0
0.057266001 -0.092174724 0.672701 0
0.056809001 -0.09360972 0.67148203 0
0.057101004 -0.093800724 0.67040598 0
0.058338001 -0.091245726 0.67245603 0
0.060320001 -0.089163721 0.67550498 0
0.058200002 -0.093100727 0.66959101 0
0.062056001 -0.088982724 0.67567903 0
0.057259001 -0.10622372 0.660528 0
0.057992004 -0.10892373 0.659042 0
0.060104001 -0.09106072 0.67135102 0
0.059102003 -0.091990724 0.670439 0
0.058329001 -0.098908722 0.66345501 0
0.059367001 -0.095398724 0.665824 0
0.060336001 -0.093674719 0.667445 0
0.058778003 -0.09769772 0.66411799 0
0.060040001 -0.10090972 0.66122103 0
0.062056001 -0.092477724 0.66884202 0
0.060454004 -0.098384723 0.662875 0
0.061290003 -0.097211719 0.663715 0
0.062187001 -0.095952719 0.66475201 0
0.063489005 -0.094002724 0.66667998 0
0.062239002 -0.093462721 0.66748899 0
0.081496999 -0.14206372 0.69536602 0
0.080651 -0.13998373 0.69421601 0
0.081423 -0.096876726 0.695086 0
0.077881999 -0.13696472 0.69060302 0
0.076793 -0.13982671 0.68993801 0
0.079579003 -0.096156724 0.69337201 0
0.0766 -0.13693772 0.68823302 0
0.079647005 -0.093858719 0.69314402 0
0.078460999 -0.09617272 0.69211 0
0.075672999 -0.13778773 0.68614697 0
0.077551 -0.097098723 0.69113302 0
0.077017002 -0.095091723 0.68964803 0
0.075313002 -0.13725373 0.68436503 0
0.077064 -0.094060719 0.68953598 0
0.075285003 -0.13506173 0.68372303 0
0.076044001 -0.097067721 0.688362 0
0.076477006 -0.094950721 0.68846899 0
0.075166002 -0.13480273 0.68219298 0
0.075709999 -0.095791727 0.68636501 0
0.075867005 -0.093976721 0.68660498 0
0.074469998 -0.098070726 0.68551701 0
0.075566001 -0.093889721 0.68549299 0
0.075081006 -0.13605373 0.680264 0
0.07525 -0.094916724 0.68374801 0
0.074994005 -0.13618073 0.67751902 0
0.075145006 -0.095068723 0.68232501 0
0.075059004 -0.13492872 0.67567801 0
0.075103998 -0.095218726 0.680453 0
0.075057998 -0.13329673 0.67643803 0
0.074888006 -0.13395272 0.67154402 0
0.075015001 -0.13205972 0.67167503 0
0.075084999 -0.098084725 0.673693 0
0.075075999 -0.097815722 0.67138398 0
0.074875005 -0.12914573 0.66648 0
0.075004004 -0.12791573 0.66655201 0
0.075015001 -0.10110372 0.67038399 0
0.074464001 -0.10990072 0.66769999 0
0.075066 -0.12521273 0.66585302 0
0.074802004 -0.10792172 0.66750902 0
0.075037003 -0.10195872 0.66781098 0
0.074657001 -0.12735373 0.66428703 0
0.074953005 -0.12406673 0.663598 0
0.074030004 -0.12186772 0.66049403 0
0.074607998 -0.11695972 0.660487 0
0.074684002 -0.11523172 0.66041499 0
0.059164003 -0.17112772 0.698511 0
0.062546998 -0.17381573 0.69853503 0
0.064828001 -0.17300472 0.69853902 0
0.066385001 -0.17470972 0.69855499 0
0.064555004 -0.17084673 0.69850999 0
0.067301005 -0.17398873 0.69854301 0
0.064383999 -0.16983272 0.69850802 0
0.066380002 -0.17001472 0.69850701 0
0.070367001 -0.17130372 0.69850898 0
0.066785 -0.16778572 0.69849902 0
0.068925001 -0.16847873 0.69850302 0
0.069228001 -0.16961473 0.698506 0
0.070636004 -0.16741273 0.69849199 0
0.071052998 -0.16941273 0.69850498 0
0.054949 -0.14582072 0.69378901 0
0.052821003 -0.14400673 0.694031 0
0.051233001 -0.14313872 0.69471598 0
0.056440003 -0.14498872 0.692334 0
0.050557002 -0.14151873 0.69469702 0
0.048548002 -0.13977972 0.69567502 0
0.053291 -0.14179173 0.69251001 0
0.052069001 -0.14178072 0.69361502 0
0.051052004 -0.13927673 0.69370699 0
0.056942001 -0.14417772 0.691284 0
0.052867003 -0.14015272 0.69216603 0
0.055960003 -0.14190872 0.68973601 0
0.055008002 -0.14121673 0.69022202 0
0.052527003 -0.13791472 0.69192201 0
0.053691 -0.13922073 0.690741 0
0.059364002 -0.14318073 0.68846798 0
0.055585001 -0.13976172 0.68789703 0
0.057312004 -0.14098872 0.68649203 0
0.058435 -0.14173272 0.68641299 0
0.056118004 -0.13896072 0.68569398 0
0.056753002 -0.13944072 0.684394 0
0.059012003 -0.14105172 0.68353999 0
0.057423003 -0.13971573 0.68251902 0
0.058289003 -0.14044172 0.68240303 0
0.059048001 -0.13936873 0.67552698 0
0.059188001 -0.13704072 0.67038602 0
0.057120003 -0.11785372 0.69812799 0
0.051138002 -0.11612672 0.69839102 0
0.052345 -0.11500873 0.69837803 0
0.059240002 -0.11764573 0.69814903 0
0.056260001 -0.11600372 0.69836402 0
0.059032001 -0.11589672 0.69827598 0
0.061079003 -0.13482073 0.66672802 0
0.056333002 -0.11393572 0.69840503 0
0.058794003 -0.13347073 0.66603303 0
0.053122003 -0.11188672 0.69835603 0
0.055155002 -0.11193872 0.698246 0
0.059325002 -0.13255672 0.66481602 0
0.056399003 -0.11106472 0.69816703 0
0.064460002 -0.11288972 0.69832999 0
0.055032 -0.10981172 0.69797498 0
0.058236003 -0.11108273 0.69807398 0
0.058454003 -0.13168472 0.66458803 0
0.062340003 -0.11320072 0.69833601 0
0.059193 -0.10996173 0.69780099 0
0.052493002 -0.10799073 0.69780999 0
0.054337002 -0.10803472 0.69761199 0
0.064326003 -0.11118172 0.69802701 0
0.062028002 -0.13093072 0.66294199 0
0.056749001 -0.10805172 0.69733202 0
0.064916 -0.10995772 0.69769001 0
0.058421001 -0.10683472 0.69656301 0
0.056425001 -0.10699272 0.69688302 0
0.059086002 -0.12914072 0.66227102 0
0.055174001 -0.10583472 0.69653201 0
0.060241003 -0.12824672 0.66135299 0
0.053347003 -0.10372172 0.69589698 0
0.061064001 -0.10703573 0.696446 0
0.060211003 -0.10575873 0.695759 0
0.059275001 -0.12682973 0.66081202 0
0.061165001 -0.12699172 0.66051501 0
0.055386003 -0.10311572 0.694628 0
0.052132003 -0.10215272 0.69556701 0
0.058341004 -0.10346472 0.69401002 0
0.062788002 -0.12693873 0.66039902 0
0.052875001 -0.10077772 0.69434601 0
0.054000001 -0.10142373 0.69407803 0
0.060786001 -0.10363372 0.69385397 0
0.060119003 -0.12409272 0.65929902 0
0.058981001 -0.10265373 0.69294 0
0.062980004 -0.12507172 0.65937901 0
0.057859004 -0.10242473 0.693021 0
0.055223003 -0.10093772 0.69276702 0
0.057080001 -0.12111672 0.660335 0
0.059666 -0.12275372 0.658952 0
0.061419003 -0.12301572 0.65879703 0
0.048618004 -0.095794722 0.69575101 0
0.051020004 -0.097941726 0.694314 0
0.058405001 -0.10169972 0.69190103 0
0.057146002 -0.10053572 0.69082302 0
0.058354001 -0.10085672 0.69048798 0
0.048977003 -0.093810722 0.69532204 0
0.051868003 -0.095844723 0.69307399 0
0.052938003 -0.096890725 0.692101 0
0.058978003 -0.11906473 0.65824801 0
0.057183001 -0.099337727 0.688299 0
0.049418002 -0.092273727 0.69488901 0
0.051170003 -0.093984723 0.69352698 0
0.058701001 -0.11717772 0.65814203 0
0.055763002 -0.098486722 0.689035 0
0.060346004 -0.11815472 0.65777099 0
0.052542001 -0.093751721 0.69196498 0
0.059145004 -0.11598273 0.65779299 0
0.060256001 -0.11407472 0.65749198 0
0.085349001 -0.087137721 0.69728202 0
0.083961003 -0.08576972 0.69692898 0
0.081309006 -0.085809723 0.69564599 0
0.083989002 -0.088271722 0.69659603 0
0.082944006 -0.085791722 0.69648403 0
0.081426002 -0.086796723 0.69545501 0
0.08439 -0.089864723 0.69662303 0
0.074359 -0.083979726 0.69221199 0
0.082945004 -0.089229725 0.69591099 0
0.076722004 -0.085497722 0.69254601 0
0.077757001 -0.086318724 0.69289398 0
0.080993004 -0.090021722 0.69443601 0
0.070507005 -0.084767722 0.68961501 0
0.076208003 -0.087270722 0.69066298 0
0.075298004 -0.08721672 0.68962198 0
0.074680999 -0.085882723 0.69041502 0
0.078168005 -0.089242727 0.69183999 0
0.085393004 -0.093750723 0.69708502 0
0.082994998 -0.093051724 0.69579399 0
0.071291 -0.085639723 0.68834901 0
0.079542004 -0.090117723 0.69308603 0
0.077082001 -0.089170724 0.69042903 0
0.085390002 -0.095228724 0.69720203 0
0.084283002 -0.095193721 0.69670904 0
0.072742 -0.086358726 0.68791503 0
0.074069999 -0.087356724 0.68772203 0
0.078700006 -0.091913722 0.69189101 0
0.081041001 -0.093844727 0.69444603 0
0.069171004 -0.086335719 0.68644303 0
0.082789004 -0.095968723 0.695921 0
0.085092001 -0.097907722 0.6972 0
0.070328005 -0.087147728 0.68439299 0
0.072188005 -0.087778725 0.68362302 0
0.085510001 -0.099903725 0.69753903 0
0.070631005 -0.087585725 0.68257403 0
0.069291003 -0.087672725 0.68138701 0
0.087014005 -0.10308573 0.69823802 0
0.072064005 -0.088288724 0.68032998 0
0.083217002 -0.10208272 0.69726503 0
0.087030001 -0.10502473 0.69831198 0
0.082482003 -0.10368572 0.69741499 0
0.071772002 -0.088480726 0.67890698 0
0.085027002 -0.10393472 0.69804698 0
0.071274005 -0.088682726 0.67748302 0
0.085141003 -0.10517672 0.69817901 0
0.085040003 -0.10706972 0.69834 0
0.086955003 -0.10796572 0.69840199 0
0.080871999 -0.10584772 0.697595 0
0.086482003 -0.10984072 0.69837099 0
0.077601999 -0.10623673 0.69703197 0
0.086892001 -0.11112172 0.69837201 0
0.081028998 -0.10997573 0.69828904 0
0.078901 -0.10909272 0.69806701 0
0.076964006 -0.10789772 0.697528 0
0.082258999 -0.11123172 0.698376 0
0.071144 -0.09102872 0.67147398 0
0.080985002 -0.11112772 0.69835603 0
0.078541003 -0.11093172 0.69828802 0
0.084405005 -0.11325272 0.69838297 0
0.086753003 -0.11501572 0.69835699 0
0.077151999 -0.11111072 0.69826603 0
0.070454001 -0.091585726 0.67033201 0
0.070152 -0.092481725 0.66895598 0
0.074416004 -0.10974472 0.69783002 0
0.080432005 -0.11318772 0.69840401 0
0.073112004 -0.094039723 0.66855603 0
0.071055003 -0.093445726 0.66785502 0
0.080944002 -0.11492772 0.69836003 0
0.084856004 -0.11711172 0.69839203 0
0.083437003 -0.11547372 0.69835299 0
0.071281001 -0.11320272 0.69836903 0
0.070363998 -0.094292723 0.66672003 0
0.076239005 -0.11504072 0.69837701 0
0.082421005 -0.11718272 0.69834 0
0.068982005 -0.11300272 0.69832903 0
0.078375004 -0.11587072 0.69834203 0
0.070328005 -0.11489772 0.69839698 0
0.072140999 -0.11507773 0.69837803 0
0.086180001 -0.11988972 0.69834399 0
0.075124003 -0.11569672 0.69836599 0
0.082369998 -0.11898272 0.69827503 0
0.084361002 -0.11994072 0.698309 0
0.075211003 -0.11779972 0.69820601 0
0.088222004 -0.12129972 0.69835901 0
0.077179 -0.11769173 0.69825798 0
0.072442003 -0.097586721 0.66422802 0
0.085012004 -0.12198173 0.698268 0
0.082408004 -0.12095872 0.69811201 0
0.080933005 -0.12107272 0.69796103 0
0.076407999 -0.11949173 0.69789898 0
0.072483003 -0.11770172 0.698098 0
0.070165999 -0.11771672 0.69805199 0
0.074103005 -0.11946072 0.69774503 0
0.071293004 -0.11902172 0.69773698 0
0.077204004 -0.12172572 0.697294 0
0.078598 -0.12129673 0.69765902 0
0.073635004 -0.10056572 0.66303402 0
0.086426005 -0.12567072 0.69813001 0
0.075919002 -0.12208072 0.69694203 0
0.075100005 -0.12109272 0.69725901 0
0.073283002 -0.12073372 0.69724602 0
0.072241999 -0.099899724 0.66226399 0
0.083293006 -0.12505372 0.69761801 0
0.079339005 -0.12330172 0.69716501 0
0.070678003 -0.12074372 0.697065 0
0.079793006 -0.12433372 0.69686002 0
0.086208999 -0.12707672 0.69795901 0
0.085019 -0.12522972 0.69794399 0
0.074142002 -0.12241172 0.69652402 0
0.085123003 -0.12683973 0.69776499 0
0.071337 -0.12211772 0.69637901 0
0.076976001 -0.12537372 0.69536203 0
0.080761999 -0.12614672 0.69652903 0
0.085333005 -0.12912272 0.69747299 0
0.072059005 -0.10222072 0.66080302 0
0.087127 -0.12940772 0.69789702 0
0.075433001 -0.12478773 0.69520998 0
0.082863003 -0.12789473 0.69685203 0
0.078511998 -0.12689272 0.69513702 0
0.083829001 -0.13002472 0.69680101 0
0.082716003 -0.12921873 0.69646299 0
0.087084003 -0.13187373 0.69778103 0
0.080916002 -0.12908073 0.69554901 0
0.070104003 -0.12411072 0.69478202 0
0.085244 -0.13108173 0.697254 0
0.072902001 -0.10521472 0.65996099 0
0.084237002 -0.13121472 0.69679999 0
0.076278999 -0.12708072 0.69374502 0
0.075360999 -0.12679273 0.69345701 0
0.078099005 -0.12802473 0.69421899 0
0.081467003 -0.13091773 0.695306 0
0.085290998 -0.13368173 0.69709998 0
0.079915002 -0.13142972 0.69396299 0
0.085465997 -0.13544773 0.69700903 0
0.087066002 -0.13577472 0.69756699 0
0.081582002 -0.13305973 0.69505602 0
0.083136 -0.13484973 0.69589299 0
0.077334002 -0.13109973 0.69129097 0
0.083228 -0.13700272 0.69582599 0
0.080704004 -0.13599272 0.693919 0
0.084153004 -0.13925472 0.69644201 0
0.085351005 -0.13999173 0.69702899 0
0.072661005 -0.11298873 0.65808201 0
0.071210004 -0.11315572 0.65748101 0
0.079152003 -0.13593473 0.69232202 0
0.082442999 -0.13914372 0.69544202 0
0.087311998 -0.14182772 0.69778901 0
0.073132001 -0.11508072 0.65837801 0
0.083006002 -0.14085372 0.69595802 0
0.084067002 -0.14266872 0.69678998 0
0.073577002 -0.11796472 0.65906703 0
0.083209001 -0.14607972 0.69712299 0
0.07102 -0.11903072 0.65777403 0
0.085200004 -0.14772972 0.69791001 0
0.072204001 -0.12105172 0.65862501 0
0.070335999 -0.12110373 0.65816402 0
0.084368005 -0.14903672 0.697918 0
0.081649005 -0.14831772 0.697146 0
0.084373005 -0.15104373 0.69812602 0
0.079141006 -0.14772072 0.69614601 0
0.080893002 -0.15168872 0.69775498 0
0.082565002 -0.15175971 0.698017 0
0.083002999 -0.15366971 0.698273 0
0.080692001 -0.15342273 0.69804204 0
0.079070002 -0.15399772 0.69794798 0
0.080348998 -0.15503472 0.69821101 0
0.078857005 -0.15711573 0.69830799 0
0.079070002 -0.15933272 0.69839203 0
0.077074006 -0.15812172 0.69831699 0
0.074992999 -0.15816072 0.69828701 0
0.076444998 -0.16023773 0.698434 0
0.073417999 -0.16902272 0.69850302 0
0.072330005 -0.16756073 0.69849199 0
0.054999001 -0.17086673 0.69850999 0
0.055955 -0.17471673 0.69853598 0
0.054639004 -0.17494273 0.69853801 0
0.055230003 -0.17369473 0.69853103 0
0.056735002 -0.17308073 0.69852901 0
0.044208001 -0.15775973 0.69841498 0
0.044566002 -0.15597673 0.69840598 0
0.056870002 -0.17197773 0.69851899 0
0.056891002 -0.17014672 0.69850498 0
0.038308002 -0.14703873 0.69835299 0
0.040459 -0.14776573 0.69835901 0
0.045174003 -0.15375672 0.69838202 0
0.043001004 -0.15182573 0.69837201 0
0.048458003 -0.15917572 0.69842803 0
0.041223004 -0.14973572 0.69836199 0
0.038459003 -0.14506572 0.69836098 0
0.049179003 -0.15773872 0.69841301 0
0.044123001 -0.15123673 0.69829303 0
0.046308003 -0.15318672 0.69830799 0
0.051009003 -0.15705872 0.69838899 0
0.042965002 -0.14882572 0.69825798 0
0.049032003 -0.15516472 0.69827998 0
0.040782005 -0.14502072 0.698286 0
0.053041004 -0.15908071 0.69839698 0
0.039309002 -0.14357373 0.69833702 0
0.046294004 -0.15180673 0.69813198 0
0.051028002 -0.15531972 0.69813299 0
0.040431 -0.14300472 0.69826299 0
0.039264999 -0.14191772 0.69832999 0
0.046259999 -0.14935172 0.697954 0
0.044829004 -0.14793673 0.69800901 0
0.049175002 -0.15323073 0.69802999 0
0.042258002 -0.14402872 0.69806898 0
0.053043 -0.15707472 0.69827598 0
0.055031002 -0.15913373 0.69833702 0
0.046348002 -0.14702372 0.69766903 0
0.048289001 -0.14912373 0.69753301 0
0.07079 -0.17378972 0.69851899 0
0.070861004 -0.17544472 0.69852602 0
0.069010004 -0.17331372 0.69852102 0
0.051503003 -0.15390572 0.69791698 0
0.050284002 -0.15195273 0.69773698 0
0.056185003 -0.15719172 0.69813699 0
0.044299003 -0.14305772 0.69779998 0
0.045257002 -0.14469472 0.69762498 0
0.053252004 -0.15389372 0.69777703 0
0.072106004 -0.17465872 0.69852799 0
0.072425999 -0.17351273 0.69852501 0
0.046416 -0.14569272 0.69742703 0
0.052208003 -0.15180072 0.69743598 0
0.054460004 -0.15390572 0.69768101 0
0.048102003 -0.14803572 0.69740599 0
0.055055 -0.15205772 0.69704598 0
0.048188001 -0.14645973 0.69707 0
0.044274002 -0.14183672 0.69770002 0
0.049249999 -0.14713472 0.69688898 0
0.074087001 -0.17375872 0.69853103 0
0.052386001 -0.14980572 0.69673401 0
0.046118002 -0.14222372 0.697173 0
0.047391001 -0.14295073 0.696738 0
0.061229002 -0.15918373 0.698241 0
0.051269002 -0.14908972 0.69681501 0
0.056292001 -0.15316272 0.69729 0
0.062507004 -0.16177772 0.698461 0
0.055041 -0.15116672 0.69668698 0
0.062985003 -0.15993272 0.69838399 0
0.054191001 -0.14829372 0.69562 0
0.048096001 -0.14126772 0.696141 0
0.076228 -0.17370872 0.69853401 0
0.050692003 -0.14499973 0.69562 0
0.052094001 -0.14607872 0.69538498 0
0.047165003 -0.13910472 0.69635499 0
0.056194 -0.14986572 0.69583702 0
0.057581 -0.15250573 0.69692302 0
0.060677003 -0.15342173 0.69705802 0
0.064331003 -0.15711072 0.698062 0
0.062154002 -0.15416773 0.69730401 0
0.063046001 -0.15706372 0.69806403 0
0.064233005 -0.15429772 0.69731498 0
0.060012002 -0.14981273 0.69524699 0
0.058961004 -0.14819773 0.69423699 0
0.065134004 -0.15289472 0.69677103 0
0.066705003 -0.15433973 0.69732302 0
0.069189005 -0.15702772 0.69804901 0
0.065172002 -0.15181473 0.696284 0
0.073838003 -0.15921272 0.69833398 0
0.068865001 -0.15301873 0.69685698 0
0.063051 -0.15132372 0.69604403 0
0.059249002 -0.14592272 0.69218099 0
0.072511002 -0.15603472 0.69787902 0
0.064153001 -0.14902472 0.69456798 0
0.063407004 -0.14769273 0.69353199 0
0.070311002 -0.15305872 0.69692099 0
0.071157999 -0.15148172 0.69625103 0
0.059983 -0.14389773 0.689403 0
0.067206003 -0.14905873 0.69455999 0
0.073371001 -0.15394773 0.69739598 0
0.060521003 -0.14330372 0.68821198 0
0.074992001 -0.15563972 0.69793802 0
0.062977999 -0.14535873 0.69114602 0
0.07508 -0.15374772 0.69745898 0
0.073198006 -0.15162273 0.696468 0
0.076972 -0.15526073 0.69800699 0
0.077225 -0.15329373 0.69759399 0
0.074064001 -0.15113972 0.69631803 0
0.060286 -0.14211072 0.68562299 0
0.044242002 -0.11517572 0.69837099 0
0.042331003 -0.11233573 0.69839299 0
0.062117003 -0.14264072 0.68658102 0
0.078692004 -0.15207973 0.69748801 0
0.061007001 -0.14165673 0.683792 0
0.042239003 -0.10797172 0.69840503 0
0.044458002 -0.11123373 0.69838798 0
0.078246005 -0.15077472 0.696989 0
0.038960002 -0.10395873 0.69838399 0
0.048255004 -0.11513273 0.69835603 0
0.046347 -0.11328772 0.69840002 0
0.061193001 -0.14102772 0.68031698 0
0.044413 -0.10987272 0.69836903 0
0.062430002 -0.14112172 0.68039101 0
0.060311001 -0.14035173 0.67745101 0
0.041007005 -0.10306172 0.69840503 0
0.043063 -0.10618772 0.69839698 0
0.048314001 -0.11372773 0.69839203 0
0.061277002 -0.14054972 0.67786402 0
0.050322004 -0.11189372 0.69840097 0
0.038968004 -0.10115172 0.69840902 0
0.039102003 -0.099942721 0.69836199 0
0.044209003 -0.10690572 0.698403 0
0.061107002 -0.13948572 0.67444402 0
0.046334002 -0.10711072 0.69821101 0
0.047097001 -0.10589372 0.69803298 0
0.048103005 -0.10804272 0.69818997 0
0.043922 -0.10185973 0.69809002 0
0.042205002 -0.09982872 0.69818801 0
0.045082003 -0.10313072 0.69802201 0
0.041050002 -0.097157724 0.69825101 0
0.061013002 -0.13814673 0.67156202 0
0.042995002 -0.097987726 0.69801003 0
0.044368003 -0.099882722 0.69786704 0
0.050975002 -0.10935372 0.69813603 0
0.046287 -0.10110272 0.69763803 0
0.046843 -0.10303973 0.69777203 0
0.041108005 -0.095054723 0.69820899 0
0.047845002 -0.10201472 0.69732499 0
0.044257 -0.09699972 0.697707 0
0.046801001 -0.10018972 0.69728303 0
0.050559003 -0.10292973 0.69659102 0
0.048594002 -0.10086273 0.69676602 0
0.046311002 -0.097830728 0.69703102 0
0.061034001 -0.13566072 0.66775501 0
0.044366002 -0.092967719 0.69752502 0
0.061394002 -0.13179472 0.66366702 0
0.064553 -0.13303772 0.66449898 0
0.064656004 -0.12981272 0.66192698 0
0.064868003 -0.12582172 0.65964299 0
0.064548001 -0.12439172 0.65902001 0
0.064112999 -0.12141472 0.65811002 0
0.062308002 -0.11708872 0.65740103 0
0.068025 -0.12209472 0.65829498 0
0.066178001 -0.11968672 0.65764898 0
0.063088998 -0.11593372 0.65726298 0
0.062280003 -0.11303873 0.65728003 0
0.062120002 -0.11112373 0.657556 0
0.063005999 -0.10905472 0.65786701 0
0.075094998 -0.14838472 0.69504303 0
0.080161005 -0.14684272 0.69619399 0
0.076773003 -0.14688772 0.69481301 0
0.068254001 -0.14791873 0.69371998 0
0.066457003 -0.14519572 0.690759 0
0.066156 -0.14426573 0.68934101 0
0.067437001 -0.14345972 0.68802398 0
0.064303003 -0.14371972 0.68845201 0
0.065559 -0.14286572 0.68660098 0
0.068335004 -0.14263372 0.68634003 0
0.068355002 -0.14228272 0.68536103 0
0.070177004 -0.14214173 0.68540901 0
0.066548005 -0.14227973 0.68509001 0
0.064312004 -0.14207673 0.68449998 0
0.070976004 -0.14151572 0.68362701 0
0.067175999 -0.14181872 0.68348002 0
0.069112003 -0.14171973 0.683617 0
0.068172999 -0.14154872 0.68240499 0
0.064254001 -0.14152673 0.68184298 0
0.071258001 -0.10954272 0.69761097 0
0.068226002 -0.14103672 0.67951798 0
0.066156998 -0.10990372 0.697658 0
0.074219003 -0.10783572 0.69720399 0
0.066248 -0.14094572 0.67839003 0
0.069104001 -0.10837172 0.697025 0
0.071214005 -0.14032272 0.67760903 0
0.078200005 -0.10474873 0.69651002 0
0.070248999 -0.10710572 0.69655001 0
0.072213002 -0.10565672 0.69573098 0
0.065931 -0.14053872 0.67687398 0
0.075387001 -0.10512772 0.69593799 0
0.079047002 -0.10283672 0.69588798 0
0.064319 -0.10713872 0.69649398 0
0.066375002 -0.10709472 0.69642103 0
0.076933004 -0.10384873 0.69558698 0
0.068243004 -0.14003372 0.67564899 0
0.065292999 -0.14006272 0.67532998 0
0.063279003 -0.10708173 0.69650602 0
0.079415999 -0.10140272 0.69538802 0
0.080962002 -0.10107972 0.69603598 0
0.076033004 -0.10276973 0.69446701 0
0.067051001 -0.13998373 0.67527002 0
0.074380003 -0.10323672 0.69422501 0
0.065265 -0.10492972 0.69481903 0
0.062257003 -0.10465072 0.69472998 0
0.065225005 -0.10393173 0.69382799 0
0.063169003 -0.13963772 0.67447698 0
0.062271003 -0.10365272 0.69374901 0
0.06261 -0.13888472 0.672746 0
0.065078005 -0.10276672 0.692433 0
0.068016 -0.13822073 0.67134702 0
0.068477005 -0.13739072 0.67002398 0
0.066909999 -0.10222372 0.69158798 0
0.064013004 -0.10201573 0.69127601 0
0.066204004 -0.13770372 0.67025101 0
0.067216001 -0.10111973 0.68966699 0
0.062183 -0.10141473 0.69045299 0
0.064943001 -0.13727072 0.66961998 0
0.065097004 -0.10083772 0.688622 0
0.068183005 -0.10068072 0.68846899 0
0.064374 -0.13573772 0.667494 0
0.067226 -0.13548572 0.66721803 0
0.071038999 -0.10001272 0.68650401 0
0.066376999 -0.13494273 0.66652602 0
0.060143001 -0.10019472 0.68761599 0
0.065063 -0.10033973 0.68628299 0
0.067394003 -0.10019772 0.68548602 0
0.062119003 -0.10007372 0.68564701 0
0.068930998 -0.10005973 0.68443203 0
0.069046006 -0.10011972 0.68248498 0
0.066360004 -0.10019872 0.68370599 0
0.068073004 -0.13301472 0.66459 0
0.071182005 -0.099891722 0.68244702 0
0.063196003 -0.10009772 0.68363202 0
0.060376003 -0.099820726 0.68454599 0
0.064381003 -0.10028772 0.68255699 0
0.067054003 -0.13180673 0.663454 0
0.063060999 -0.10026972 0.68178999 0
0.064532004 -0.10058372 0.68102401 0
0.068059005 -0.10088872 0.67955601 0
0.069209002 -0.12958673 0.66197103 0
0.066408001 -0.10099272 0.67962402 0
0.068051003 -0.10128472 0.67851299 0
0.073180005 -0.099922724 0.67866498 0
0.067041002 -0.10161772 0.67809403 0
0.070379004 -0.10145573 0.677746 0
0.071178004 -0.12555373 0.65994501 0
0.070188999 -0.12681372 0.66041601 0
0.073258005 -0.10222172 0.67440498 0
0.071286 -0.12402073 0.65926301 0
0.069007002 -0.12511972 0.65952301 0
0.062874004 -0.17161873 0.69852102 0
0.064923003 -0.17511472 0.69855601 0
0.067077003 -0.11130972 0.69802099 0
0.054021001 -0.13601473 0.68953699 0
0.054751001 -0.13590972 0.68806398 0
0.055018 -0.13734972 0.68754601 0
0.055371001 -0.09497872 0.68664402 0
0.055294003 -0.092819721 0.68651801 0
0.055929001 -0.13374873 0.68436301 0
0.056286 -0.13809273 0.683483 0
0.056036003 -0.095887721 0.68435502 0
0.056001 -0.13517672 0.68332398 0
0.056689002 -0.097542726 0.68393099 0
0.056082003 -0.13578372 0.68249202 0
0.056353003 -0.13795872 0.682441 0
0.056531001 -0.097074725 0.68245298 0
0.056627002 -0.097563721 0.68035001 0
0.058722001 -0.099489726 0.68176603 0
0.056109004 -0.13425672 0.67836803 0
0.056085002 -0.093054727 0.68014699 0
0.056148 -0.13570273 0.67851001 0
0.057312004 -0.098846719 0.679609 0
0.058422003 -0.099558726 0.68050402 0
0.056667 -0.13771072 0.677688 0
0.056056 -0.094022721 0.678285 0
0.056373 -0.097764723 0.67754602 0
0.057130001 -0.098936722 0.67861801 0
0.056220002 -0.13580772 0.67644 0
0.056666002 -0.09956672 0.67545402 0
0.056110002 -0.13399573 0.67425299 0
0.056093 -0.095957726 0.674371 0
0.056174003 -0.098008722 0.67440599 0
0.057527002 -0.10264073 0.67344499 0
0.056535002 -0.13494572 0.67158699 0
0.056792002 -0.10304072 0.67166901 0
0.056430001 -0.13387473 0.67052799 0
0.056335002 -0.10310972 0.670389 0
0.056227002 -0.13204372 0.66932201 0
0.057127003 -0.10556872 0.67036098 0
0.056892 -0.12313172 0.66983199 0
0.056131002 -0.12982573 0.66946501 0
0.056061003 -0.10371172 0.66856599 0
0.057124004 -0.10706172 0.66957098 0
0.056290001 -0.10560872 0.668432 0
0.056123003 -0.12784372 0.66787601 0
0.056103002 -0.099873722 0.66826499 0
0.056265004 -0.12315673 0.66832703 0
0.056190003 -0.13005872 0.66763198 0
0.056098003 -0.10105472 0.66765499 0
0.056021001 -0.10410172 0.66636902 0
0.056284003 -0.11792172 0.66651702 0
0.056145001 -0.11910573 0.66650498 0
0.056177001 -0.10992772 0.66643399 0
0.056344002 -0.11302073 0.66648299 0
0.056253001 -0.12787673 0.665649 0
0.056091003 -0.12522572 0.665546 0
0.057126001 -0.13103572 0.665546 0
0.056146003 -0.12379372 0.663616 0
0.056387 -0.12586772 0.66370898 0
0.056083001 -0.12188873 0.66341901 0
0.056962002 -0.12929772 0.66452003 0
0.056064002 -0.10877972 0.66374499 0
0.056058001 -0.11791272 0.66378403 0
0.056051001 -0.11599872 0.662247 0
0.056661002 -0.12381373 0.66193599 0
0.056793004 -0.12501572 0.662238 0
0.056149002 -0.11197373 0.66175598 0
0.056170002 -0.11717273 0.66161501 0
0.056408003 -0.10698573 0.66180098 0
0.056229003 -0.10989672 0.661587 0
0.056711003 -0.11909172 0.66033202 0
0.045054004 -0.082089722 0.69795299 0
0.048748001 -0.081857726 0.69704902 0
0.042915002 -0.083151728 0.698183 0
0.052177001 -0.079772726 0.69662499 0
0.046381004 -0.082997724 0.69753802 0
0.052237004 -0.081403725 0.69597602 0
0.044400003 -0.085168719 0.69783801 0
0.054114003 -0.080984727 0.69546801 0
0.045934003 -0.08535172 0.69738001 0
0.050582003 -0.083432719 0.69588399 0
0.048821002 -0.084787726 0.69633603 0
0.041046001 -0.08715672 0.69829303 0
0.044448003 -0.086923726 0.69767404 0
0.050081 -0.085164726 0.69558102 0
0.046104003 -0.087016724 0.69714898 0
0.052390002 -0.085182726 0.69415098 0
0.047490001 -0.085932724 0.69670904 0
0.038910002 -0.089056723 0.69837999 0
0.047222003 -0.087762721 0.69659901 0
0.040905003 -0.089993723 0.69819802 0
0.051421002 -0.086202726 0.69441003 0
0.048650004 -0.087399721 0.695912 0
0.042221002 -0.091117725 0.69805002 0
0.040215001 -0.091867723 0.69827104 0
0.048525002 -0.089168727 0.695723 0
0.044498004 -0.091220722 0.69743299 0
0.047176003 -0.09027072 0.69638801 0
0.052627001 -0.087972723 0.69271499 0
0.054584004 -0.086207725 0.691755 0
0.042565003 -0.093337722 0.69798803 0
0.051135004 -0.089740723 0.69364899 0
0.054661002 -0.089130722 0.68949902 0
0.052677002 -0.090052724 0.69191903 0
0.054057002 -0.090952724 0.68971199 0
0.054741003 -0.091119722 0.68828303 0
0.055314001 -0.091835722 0.68659198 0
0.056017004 -0.091110721 0.68431103 0
0.055940002 -0.093014725 0.68346101 0
0.056241002 -0.096006721 0.67043102 0
0.042661004 -0.11812773 0.69837701 0
0.044348001 -0.11791972 0.69836098 0
0.047033004 -0.11794472 0.698385 0
0.041193999 -0.11783873 0.698385 0
0.066996999 -0.11298373 0.69833899 0
0.040932 -0.11990172 0.69836301 0
0.044277001 -0.11902273 0.69833702 0
0.056642003 -0.099164724 0.66560203 0
0.051034003 -0.11794172 0.69837099 0
0.054222003 -0.11937472 0.69798601 0
0.065067999 -0.11623172 0.69827002 0
0.043416999 -0.12208572 0.69837803 0
0.045306005 -0.12176872 0.69832098 0
0.062339 -0.11779673 0.698075 0
0.052648 -0.11963272 0.69802201 0
0.056626003 -0.10141473 0.66395003 0
0.046205003 -0.12195072 0.69826102 0
0.057634003 -0.10047972 0.66290498 0
0.056334004 -0.11920472 0.69785798 0
0.042254001 -0.12331172 0.69837499 0
0.065023005 -0.11763573 0.69806099 0
0.054906003 -0.12118972 0.69736999 0
0.051183 -0.12120872 0.69788504 0
0.046434 -0.12291172 0.69814903 0
0.056081001 -0.12079173 0.69740802 0
0.060254 -0.11925872 0.69768101 0
0.058862001 -0.12065072 0.69721901 0
0.045141004 -0.12402073 0.69818902 0
0.039207004 -0.12586673 0.69839603 0
0.058260001 -0.10198072 0.66148502 0
0.050287001 -0.12322272 0.697523 0
0.055468 -0.12207472 0.696922 0
0.044937 -0.12596872 0.69800699 0
0.060954001 -0.10206872 0.660456 0
0.058493003 -0.12214272 0.696491 0
0.046335004 -0.12601772 0.69780201 0
0.041222002 -0.12796272 0.698322 0
0.057632003 -0.10406172 0.660945 0
0.049212001 -0.12609372 0.69700199 0
0.049836002 -0.12481372 0.69716001 0
0.042954002 -0.12608072 0.69823599 0
0.048430003 -0.12727472 0.696953 0
0.051371001 -0.12580872 0.696262 0
0.046289004 -0.12781672 0.69759899 0
0.059055001 -0.10495372 0.65957499 0
0.041320004 -0.12988172 0.69824803 0
0.054253001 -0.12509473 0.69547701 0
0.044619001 -0.13003772 0.69770598 0
0.042126 -0.13194172 0.69797498 0
0.049024001 -0.12904072 0.69625103 0
0.061468001 -0.10607672 0.65870601 0
0.040411003 -0.13186772 0.698259 0
0.054387003 -0.12705272 0.69397098 0
0.044177003 -0.13200173 0.697649 0
0.061228003 -0.10776872 0.65823901 0
0.052436002 -0.12945673 0.693744 0
0.048608001 -0.13136972 0.69587898 0
0.045789003 -0.13297972 0.69709003 0
0.054341003 -0.12903972 0.69234002 0
0.042217001 -0.13406472 0.69798702 0
0.038373001 -0.13570373 0.69832999 0
0.038904004 -0.13707572 0.69832999 0
0.052083001 -0.13109472 0.69327402 0
0.047131002 -0.13378173 0.69643998 0
0.044259004 -0.13584073 0.697487 0
0.048507001 -0.13398673 0.69567901 0
0.042184003 -0.13716672 0.69787598 0
0.060248002 -0.11090572 0.65774 0
0.053964004 -0.13078372 0.69129199 0
0.050856002 -0.13297172 0.69401699 0
0.045675002 -0.13617772 0.69693702 0
0.052854002 -0.13169372 0.69221199 0
0.052228004 -0.13333972 0.69258398 0
0.048224002 -0.13600172 0.69566298 0
0.040978 -0.13899472 0.69819903 0
0.045678005 -0.13777672 0.69694901 0
0.038838003 -0.14002672 0.69831598 0
0.053691 -0.13316172 0.690642 0
0.050227001 -0.13589773 0.69420499 0
0.048240002 -0.13713673 0.69566399 0
0.043283001 -0.13904673 0.69777399 0
0.056159001 -0.13314472 0.68238002 0
0.056196004 -0.13310172 0.680565 0
0.038203999 -0.14998472 0.69835401 0
0.038981002 -0.15181872 0.69839501 0
0.041081004 -0.15520772 0.698412 0
0.059253003 -0.16801073 0.69849801 0
0.069507003 -0.14688672 0.692882 0
0.071327999 -0.14785472 0.69387698 0
0.070032999 -0.14582571 0.69187802 0
0.074170001 -0.14558372 0.69259101 0
0.074809 -0.14409173 0.69150102 0
0.071143001 -0.14413172 0.68969899 0
0.076594003 -0.14368072 0.69250602 0
0.078446999 -0.14302672 0.693578 0
0.073119 -0.14324072 0.68933403 0
0.072258003 -0.14271072 0.687814 0
0.076957002 -0.14210472 0.69165099 0
0.074960001 -0.14198372 0.689358 0
0.074609004 -0.14145473 0.688263 0
0.077521004 -0.14020872 0.69114703 0
0.072870001 -0.14153872 0.68587703 0
0.075592004 -0.14000772 0.68809801 0
0.074723005 -0.13969472 0.68569303 0
0.074218005 -0.13978073 0.68442798 0
0.072993003 -0.13997373 0.67968601 0
0.074239999 -0.13881172 0.68039602 0
0.070294999 -0.13572372 0.66785401 0
0.071981005 -0.13258873 0.66486698 0
0.071924999 -0.13156073 0.663957 0
0.071454003 -0.12930572 0.66207802 0
0.074262999 -0.12903072 0.664509 0
0.071237005 -0.10332672 0.69356203 0
0.074385002 -0.12515472 0.66239101 0
0.070360005 -0.10192072 0.691576 0
0.068923004 -0.10198672 0.69147903 0
0.072913006 -0.10173772 0.691921 0
0.070317999 -0.10118572 0.69046301 0
0.074304998 -0.10104172 0.691652 0
0.072131999 -0.10107272 0.69064701 0
0.076311 -0.10007872 0.69209498 0
0.077684 -0.099834725 0.69310701 0
0.077188 -0.091677725 0.689632 0
0.076136999 -0.089699723 0.68850303 0
0.076645002 -0.093035728 0.68843102 0
0.076514006 -0.091893725 0.68822902 0
0.075052001 -0.089310721 0.68662298 0
0.074321002 -0.12830472 0.69086003 0
0.075551003 -0.12891272 0.691266 0
0.077509999 -0.13306972 0.69055402 0
0.071304999 -0.12704873 0.69145101 0
0.074949004 -0.12943272 0.68984002 0
0.073376 -0.12875272 0.68914104 0
0.074907005 -0.090322725 0.68447101 0
0.075252004 -0.093016721 0.68363798 0
0.076126002 -0.13205573 0.688402 0
0.074918002 -0.091260724 0.68242198 0
0.073121004 -0.12919973 0.68766099 0
0.074329004 -0.08988072 0.68259501 0
0.068837002 -0.12816572 0.68845201 0
0.070308 -0.12821972 0.68866599 0
0.075796999 -0.13378572 0.68647099 0
0.075103998 -0.093025722 0.68156999 0
0.066211 -0.12802373 0.68834603 0
0.075567 -0.13520873 0.68527299 0
0.074850999 -0.13141173 0.68550199 0
0.070429005 -0.12878072 0.686369 0
0.074859999 -0.091821723 0.67955101 0
0.074076004 -0.089913726 0.680444 0
0.069104001 -0.12881872 0.68571198 0
0.075014003 -0.093047723 0.67845398 0
0.064193003 -0.12856573 0.68603903 0
0.075090006 -0.13305072 0.68232501 0
0.069102004 -0.12882772 0.683492 0
0.071127005 -0.12899072 0.68239802 0
0.066365004 -0.12870872 0.684421 0
0.071249001 -0.089045726 0.67632699 0
0.069035001 -0.12866873 0.68165803 0
0.074913003 -0.09311372 0.67631203 0
0.074210003 -0.092021719 0.67442203 0
0.075103 -0.13377772 0.67954403 0
0.067844003 -0.12848572 0.68109 0
0.066307999 -0.12841672 0.68137401 0
0.073222004 -0.091121726 0.67355198 0
0.074317001 -0.13017373 0.67839402 0
0.075074002 -0.13322373 0.67854303 0
0.072253004 -0.12824373 0.678285 0
0.073879004 -0.092379719 0.67269403 0
0.075029999 -0.13187473 0.67647898 0
0.068014003 -0.12798072 0.67951703 0
0.067036003 -0.12795572 0.67969298 0
0.074664004 -0.093928725 0.67251402 0
0.074694 -0.12973373 0.67554599 0
0.074010998 -0.12825373 0.67528903 0
0.073949002 -0.093739726 0.67051101 0
0.075050004 -0.13191873 0.67439801 0
0.074992001 -0.097964719 0.668567 0
0.074688002 -0.12687072 0.67173499 0
0.073236004 -0.12469472 0.67243701 0
0.075082004 -0.099284723 0.66850203 0
0.075024001 -0.12722373 0.66970503 0
0.074640006 -0.12385172 0.66952103 0
0.07423 -0.11313573 0.66759503 0
0.075019002 -0.12515773 0.66836703 0
0.074909002 -0.10123572 0.66553003 0
0.074591003 -0.12181173 0.66848403 0
0.074230999 -0.11700572 0.66771603 0
0.074247003 -0.11498272 0.66750199 0
0.075041004 -0.10302472 0.666583 0
0.074999005 -0.12316173 0.66736203 0
0.074528001 -0.11905272 0.667557 0
0.074578002 -0.099657722 0.66533703 0
0.074858002 -0.11192572 0.66626698 0
0.074845001 -0.11591972 0.666264 0
0.074772 -0.11697073 0.66660702 0
0.074760005 -0.10311472 0.663764 0
0.075066 -0.11392372 0.66369599 0
0.074994005 -0.10598172 0.66362298 0
0.075057 -0.12112572 0.66456902 0
0.075010002 -0.10979472 0.66242999 0
0.075055003 -0.11581472 0.66360801 0
0.075051002 -0.11914273 0.66355002 0
0.074985005 -0.11604773 0.661722 0
0.074972004 -0.11381172 0.66164398 0
0.074462004 -0.11187673 0.66019601 0
0.074271001 -0.10889072 0.66032898 0
0.093326002 -0.057651725 0.698466 0
0.091358006 -0.057853725 0.69845903 0
0.091127001 -0.059332725 0.69845599 0
0.089440003 -0.059235722 0.698466 0
0.088401005 -0.058168724 0.69847101 0
0.092528999 -0.060162723 0.69845599 0
0.084320001 -0.057634722 0.69848204 0
0.083453 -0.056391723 0.69849199 0
0.081165001 -0.059112724 0.69847798 0
0.080683999 -0.057972722 0.69848502 0
0.086736001 -0.060091723 0.698475 0
0.078299001 -0.058348723 0.69848901 0
0.078455999 -0.059773725 0.69849002 0
0.052870002 -0.056255724 0.69851398 0
0.054464001 -0.057216723 0.69850999 0
0.072716005 -0.058154725 0.69847798 0
0.090501003 -0.061969724 0.69846302 0
0.088860005 -0.061629724 0.69846898 0
0.074987002 -0.059670724 0.698484 0
0.085391998 -0.061212722 0.69847399 0
0.068359002 -0.058121722 0.698493 0
0.068287998 -0.059165724 0.69849598 0
0.066862002 -0.059840724 0.69849902 0
0.066517003 -0.058134723 0.69850302 0
0.052040003 -0.057831723 0.69849801 0
0.076306 -0.060021725 0.69848603 0
0.090594999 -0.063073725 0.698452 0
0.064066999 -0.061012723 0.69850302 0
0.047297999 -0.059626725 0.69849402 0
0.049009003 -0.058941722 0.698493 0
0.048093002 -0.057276722 0.69850302 0
0.046771005 -0.056855723 0.69850701 0
0.035530999 -0.056278724 0.69851798 0
0.042130001 -0.058027722 0.69850302 0
0.042482004 -0.059345722 0.69850302 0
0.092528 -0.063847721 0.69843203 0
0.082340002 -0.061742723 0.69848001 0
0.072276004 -0.061158724 0.69849998 0
0.068190001 -0.062056724 0.698493 0
0.084898002 -0.06387572 0.69845599 0
0.066673003 -0.061978724 0.69849801 0
0.066646002 -0.063507721 0.69849098 0
0.038366001 -0.057785723 0.69850802 0
0.036579002 -0.057310723 0.69850898 0
0.074743003 -0.062383723 0.69848603 0
0.040587001 -0.055558722 0.69851601 0
0.051337004 -0.059417725 0.69849902 0
0.070592999 -0.062939718 0.698488 0
0.086464003 -0.064910725 0.69845402 0
0.079091005 -0.063056722 0.698475 0
0.038752005 -0.059761722 0.69850403 0
0.062523 -0.061280724 0.69850403 0
0.037514001 -0.060182724 0.69850099 0
0.083131 -0.063796721 0.69845498 0
0.074708998 -0.063541725 0.69847602 0
0.064436004 -0.063900724 0.69849002 0
0.046612002 -0.061459724 0.69850302 0
0.084922001 -0.06535472 0.698457 0
0.080666006 -0.065318719 0.698466 0
0.035398003 -0.059593722 0.69849902 0
0.083147004 -0.065168723 0.698461 0
0.044965003 -0.061432723 0.69850498 0
0.062847003 -0.063316718 0.69849598 0
0.032741003 -0.061006725 0.69849902 0
0.096959002 -0.067144722 0.69843799 0
0.052719001 -0.061075725 0.69850403 0
0.098909006 -0.068736725 0.69841099 0
0.042867001 -0.061340723 0.69850099 0
0.072206005 -0.065314725 0.69847602 0
0.070372999 -0.06505172 0.69848299 0
0.066054001 -0.065682724 0.69849801 0
0.057077002 -0.063868724 0.698488 0
0.050351001 -0.063041724 0.698493 0
0.040766001 -0.061209723 0.698502 0
0.059906002 -0.063565724 0.69849002 0
0.052324001 -0.065096721 0.69849199 0
0.053398002 -0.063851722 0.698488 0
0.091114998 -0.067304723 0.69844699 0
0.058717001 -0.062979728 0.69849098 0
0.048604004 -0.063184723 0.69849598 0
0.049016003 -0.061719723 0.69849902 0
0.068530001 -0.065819725 0.69849402 0
0.089088 -0.06737572 0.698448 0
0.046430003 -0.064377725 0.69849098 0
0.038256004 -0.061260723 0.69849801 0
0.037002005 -0.061609723 0.69849402 0
0.084297001 -0.066859722 0.69845301 0
0.091288999 -0.069164723 0.69840902 0
0.082308002 -0.066879719 0.69846803 0
0.080452003 -0.067139722 0.69846898 0
0.072480999 -0.067128718 0.698488 0
0.078935005 -0.067653723 0.69847202 0
0.062612005 -0.065634727 0.69849199 0
0.096229002 -0.070405722 0.69840401 0
0.093065999 -0.068944722 0.69841897 0
0.098924004 -0.07104972 0.69841301 0
0.089319006 -0.069372728 0.69841301 0
0.10048901 -0.071036726 0.69840902 0
0.064638004 -0.066076726 0.69849598 0
0.054234002 -0.065851718 0.698502 0
0.084132001 -0.069152728 0.69842201 0
0.050756 -0.06461972 0.69849002 0
0.032461002 -0.065169722 0.69847798 0
0.032351002 -0.063989729 0.69847602 0
0.092315003 -0.071184725 0.69841999 0
0.090761006 -0.071221724 0.69841999 0
0.082162 -0.069723725 0.69841897 0
0.069314003 -0.067785725 0.69849002 0
0.066823006 -0.068258718 0.69849098 0
0.039535001 -0.065731719 0.69848502 0
0.034643002 -0.066041723 0.69848603 0
0.064658001 -0.067673728 0.69849998 0
0.066232003 -0.069614723 0.69840503 0
0.058860004 -0.06580472 0.69849199 0
0.042169005 -0.065379724 0.69849098 0
0.037220001 -0.065685719 0.69849002 0
0.080850005 -0.071419723 0.69842398 0
0.098378003 -0.073388726 0.69837201 0
0.061191 -0.06972672 0.69834298 0
0.048831999 -0.067046724 0.69848502 0
0.050445002 -0.06714572 0.69848901 0
0.10243 -0.073778719 0.69836301 0
0.058416001 -0.068794727 0.69843799 0
0.090283006 -0.073370725 0.69838297 0
0.052389003 -0.069011718 0.69846499 0
0.032757003 -0.068144724 0.69846702 0
0.082501002 -0.072008722 0.69841498 0
0.034773 -0.067606725 0.69848102 0
0.094920002 -0.073120728 0.69837403 0
0.076341003 -0.071015723 0.69837499 0
0.040542003 -0.066981718 0.698493 0
0.094289005 -0.071580723 0.69840503 0
0.073090002 -0.070133723 0.698376 0
0.068438999 -0.071408719 0.698246 0
0.062487002 -0.069936723 0.698349 0
0.078255005 -0.071948722 0.69836599 0
0.092369005 -0.073389724 0.69837898 0
0.056325004 -0.069891721 0.69838601 0
0.049079001 -0.069271728 0.69845498 0
0.0306 -0.068880722 0.69845903 0
0.031148002 -0.067328721 0.69847399 0
0.097250998 -0.075416721 0.69836003 0
0.084243 -0.073234722 0.69837999 0
0.055101 -0.070146725 0.69837898 0
0.044297002 -0.069176719 0.69845402 0
0.036114 -0.068998724 0.69844604 0
0.042520002 -0.068746723 0.69846803 0
0.051382001 -0.069678724 0.69845402 0
0.049151003 -0.071077719 0.69847399 0
0.040942002 -0.069711722 0.69845802 0
0.094366997 -0.075355724 0.69835001 0
0.091089003 -0.074851722 0.69836402 0
0.076338999 -0.073442727 0.69807398 0
0.054562002 -0.071098723 0.69841701 0
0.080382004 -0.073208719 0.698313 0
0.060260002 -0.071804725 0.69817001 0
0.050478004 -0.071076721 0.69847399 0
0.034503002 -0.069363728 0.69845098 0
0.093399003 -0.075748727 0.69835901 0
0.047228001 -0.07065472 0.69847298 0
0.045149002 -0.071787722 0.69847202 0
0.085076004 -0.07501772 0.69831002 0
0.072485998 -0.073220722 0.69792199 0
0.056262001 -0.071837723 0.69826198 0
0.082993001 -0.075118721 0.69821602 0
0.081061006 -0.075053722 0.69815201 0
0.052300002 -0.071912721 0.69844103 0
0.064368002 -0.073157728 0.69785798 0
0.040362 -0.071745723 0.69847 0
0.033233002 -0.070022725 0.69845998 0
0.028482001 -0.069811724 0.69845802 0
0.068075001 -0.072954722 0.69792002 0
0.032956 -0.071731724 0.69846702 0
0.030957002 -0.070898727 0.69847399 0
0.076350003 -0.075264722 0.69762802 0
0.070181005 -0.073417723 0.69781703 0
0.038773 -0.070008725 0.69845498 0
0.092090003 -0.077439725 0.69837302 0
0.090787001 -0.077010721 0.69837099 0
0.056818001 -0.07346572 0.69796401 0
0.046507001 -0.072983727 0.69846201 0
0.042949002 -0.071617723 0.69846803 0
0.102407 -0.078335725 0.69836801 0
0.078508005 -0.074841723 0.69795603 0
0.041045003 -0.073229723 0.69845003 0
0.086392999 -0.077014722 0.69835198 0
0.102007 -0.079467721 0.69837302 0
0.094691999 -0.078134723 0.698367 0
0.035079002 -0.071956724 0.69845903 0
0.088358998 -0.077654719 0.69838202 0
0.044321001 -0.073357724 0.69844002 0
0.098515004 -0.080053724 0.69837302 0
0.0823 -0.077067718 0.69800603 0
0.070592999 -0.075805724 0.697043 0
0.071724005 -0.076253727 0.69692498 0
0.065920003 -0.076367721 0.69670701 0
0.066869006 -0.074858725 0.69731498 0
0.061162002 -0.074979722 0.69735301 0
0.093284003 -0.079663724 0.69837302 0
0.085035004 -0.078072727 0.69821203 0
0.028273001 -0.07138972 0.69846898 0
0.104638 -0.081312723 0.69836599 0
0.078976005 -0.077851728 0.69732499 0
0.074248001 -0.076023728 0.69720602 0
0.032313 -0.073016718 0.69845098 0
0.088529006 -0.079137728 0.69835299 0
0.043015003 -0.073021725 0.69844502 0
0.054394003 -0.074995726 0.69779402 0
0.051024001 -0.074887723 0.69812202 0
0.080926999 -0.078090727 0.69763398 0
0.076487005 -0.077904724 0.69682097 0
0.068617001 -0.075759724 0.696989 0
0.058807001 -0.076188728 0.69698501 0
0.10588101 -0.081433728 0.69835901 0
0.104906 -0.083112724 0.69835001 0
0.087314002 -0.079301722 0.69830102 0
0.050059002 -0.073914722 0.69831502 0
0.038401 -0.075240724 0.69842803 0
0.048374005 -0.075922728 0.69823802 0
0.080613002 -0.079826728 0.69713801 0
0.052454002 -0.077018723 0.69747901 0
0.042934 -0.075565726 0.69843298 0
0.026936002 -0.073655725 0.698448 0
0.034448002 -0.075682722 0.698434 0
0.035089001 -0.073899724 0.69844198 0
0.028805003 -0.073601723 0.69844401 0
0.102101 -0.081283718 0.69836998 0
0.057260003 -0.077658728 0.69647902 0
0.058959004 -0.077329725 0.69646204 0
0.033094004 -0.075720727 0.69843203 0
0.086367004 -0.081936724 0.69807202 0
0.074485004 -0.079178721 0.69578803 0
0.064235002 -0.077576727 0.69615602 0
0.049090002 -0.077131718 0.69796598 0
0.046275005 -0.077037722 0.69821501 0
0.036696002 -0.075809725 0.69843102 0
0.078120999 -0.079461724 0.69657803 0
0.072622001 -0.078749724 0.69574499 0
0.045035005 -0.076158725 0.69840699 0
0.102083 -0.083969727 0.698358 0
0.088293999 -0.081828728 0.69830799 0
0.071038999 -0.078970723 0.695467 0
0.093067005 -0.083633721 0.69836503 0
0.065037005 -0.078979723 0.69524699 0
0.062401 -0.077863723 0.69605303 0
0.034286004 -0.077949718 0.69841999 0
0.100595 -0.085046723 0.69836199 0
0.096592002 -0.083586723 0.69836199 0
0.040228002 -0.077969722 0.69841701 0
0.066987 -0.078939721 0.695274 0
0.098229006 -0.08369872 0.698358 0
0.09471 -0.084026724 0.69836801 0
0.060999002 -0.079157725 0.69523799 0
0.044440001 -0.077947721 0.69835401 0
0.090467006 -0.083087727 0.69834101 0
0.090230003 -0.081840724 0.69836003 0
0.081724003 -0.082087725 0.69687301 0
0.028262001 -0.07589972 0.69842803 0
0.102798 -0.085898727 0.69835901 0
0.072464004 -0.080278724 0.69474602 0
0.064934 -0.080250725 0.69430602 0
0.026364002 -0.075828724 0.69843203 0
