# .PCD v0.7 - Point Cloud Data file format
VERSION 0.7
FIELDS x y z rgba
SIZE 4 4 4 4
TYPE F F F U
COUNT 1 1 1 1
WIDTH 1110
HEIGHT 1
VIEWPOINT 0 0 0 1 0 0 0
POINTS 1110
DATA ascii
-0.080503814 0.042896193 0.61700004 10127478
-0.079457149 0.042965718 0.61800003 10061941
-0.078280002 0.042965718 0.61800003 9996151
-0.077227622 0.043035239 0.61900002 9996152
-0.076171428 0.043104764 0.62 10061434
-0.075232387 0.043243811 0.62200004 10061947
-0.074166663 0.043313332 0.62300003 10127226
-0.07309714 0.043382857 0.62400001 10061689
-0.071908571 0.043382857 0.62400001 10061689
-0.070833333 0.043452382 0.625 9996666
-0.069642857 0.043452382 0.625 9996406
-0.068561912 0.043521907 0.62600005 9930867
-0.067369528 0.043521907 0.62600005 9864820
-0.066282853 0.043591432 0.62700003 9864821
-0.06508857 0.043591432 0.62700003 9930097
-0.064098097 0.043730475 0.62900001 9864558
-0.063100003 0.043869525 0.63100004 9798769
-0.061898097 0.043869525 0.63100004 9732469
-0.060792383 0.04393905 0.63200003 9666934
-0.059682857 0.044008572 0.63300002 9732727
-0.058477145 0.044008572 0.63300002 9798773
-0.057271428 0.044008572 0.63300002 10192500
-0.056065716 0.044008572 0.63300002 10650737
-0.054946665 0.044078097 0.634 9798509
-0.053739045 0.044078097 0.634 9010027
-0.052531429 0.044078097 0.634 8809833
-0.051323809 0.044078097 0.634 8613478
-0.050195243 0.044147622 0.63500005 8351330
-0.04898572 0.044147622 0.63500005 8154718
-0.16692857 0.036899999 0.61500001 5194557
-0.16414 0.036540002 0.60900003 5128506
-0.16271238 0.036480002 0.60800004 5062455
-0.16128857 0.036420003 0.60700005 5062453
-0.16646001 -0.01102 0.60900003 5388618
-0.16502859 -0.011001905 0.60800004 4995651
-0.16360097 -0.010983811 0.60700005 4799293
-0.16190952 -0.01094762 0.60500002 4668222
-0.16049144 -0.010929525 0.60400003 4602688
-0.15907715 -0.010911429 0.60300004 4602685
-0.15740477 -0.010875239 0.60100001 4603194
-0.15574001 -0.010839048 0.59900004 4668728
-0.15382476 -0.010784762 0.59600002 4668726
-0.15243334 -0.010766666 0.59500003 4668470
-0.15053713 -0.010712381 0.59200001 4669238
-0.14865239 -0.010658096 0.58900005 4734520
-0.14702952 -0.010621904 0.58700001 4668729
-0.14541429 -0.010585715 0.58500004 4602939
-0.14405334 -0.010567619 0.58400005 4734013
-0.14245144 -0.010531429 0.58200002 4865076
-0.14037143 -0.010459048 0.57800001 4142380
-0.13927048 -0.010459048 0.57800001 3482951
-0.13816953 -0.010459048 0.57800001 5985634
-0.13683143 -0.010440952 0.57700002 8554352
-0.13596763 -0.010459048 0.57800001 9144702
-0.13463333 -0.010440952 0.57700002 9733501
-0.13399714 -0.010477144 0.57900006 9733244
-0.13312382 -0.010495238 0.58000004 9733244
-0.13224667 -0.010513334 0.58100003 9602427
-0.13114001 -0.010513334 0.58100003 9471097
-0.13025714 -0.010531429 0.58200002 9667704
-0.12937048 -0.010549523 0.583 9864058
-0.12826 -0.010549523 0.583 9732988
-0.12714952 -0.010549523 0.583 9667451
-0.15960477 0.0363 0.60500002 4997175
-0.15792859 0.036180001 0.60300004 4931641
-0.15626 0.036059998 0.60100001 4866105
-0.15459906 0.035940003 0.59900004 4866362
-0.15294571 0.03582 0.597 4865852
-0.15155429 0.03576 0.59600002 4931647
-0.14991429 0.035640001 0.59400004 5062973
-0.14853239 0.035580005 0.59300005 4997179
-0.14665715 0.035400003 0.59000003 4932409
-0.14454667 0.035160001 0.58600003 4932151
-0.14318573 0.035100002 0.58500004 4931899
-0.070720002 0.032685712 0.62400001 9799022
-0.069642857 0.032738093 0.625 9733486
-0.068452381 0.032738093 0.625 9667183
-0.067369528 0.032790478 0.62600005 9534831
-0.06638857 0.032895237 0.62800002 9469296
-0.065192387 0.032895237 0.62800002 9403760
-0.064098097 0.032947619 0.62900001 9404016
-0.063100003 0.033052381 0.63100004 9338735
-0.061996192 0.033104762 0.63200003 9470062
-0.060792383 0.033104762 0.63200003 9536112
-0.059588574 0.033104762 0.63200003 9602162
-0.058384765 0.033104762 0.63200003 9601900
-0.057180952 0.033104762 0.63200003 9470822
-0.055977143 0.033104762 0.63200003 9340007
-0.054773334 0.033104762 0.63200003 8613481
-0.053569525 0.033104762 0.63200003 7957603
-0.099505715 0.11114381 0.611 3024165
-0.098341905 0.11114381 0.611 3023647
-0.097178094 0.11114381 0.611 2762266
-0.096171439 0.11132572 0.61200005 2498062
-0.095005721 0.11132572 0.61200005 2300163
-0.093840003 0.11132572 0.61200005 2102314
-0.092674293 0.11132572 0.61200005 3620690
-0.0916581 0.11150762 0.61300004 5202539
-0.090490483 0.11150762 0.61300004 7304068
-0.089468569 0.11168952 0.61400002 9471353
-0.088299051 0.11168952 0.61400002 9667183
-0.08727143 0.11187143 0.61500001 9863280
-0.086099997 0.11187143 0.61500001 9928818
-0.084928572 0.11187143 0.61500001 9994352
-0.083893336 0.11205334 0.61600006 9929070
-0.082720011 0.11205334 0.61600006 9929325
-0.081811436 0.11241715 0.61800003 9863789
-0.080634288 0.11241715 0.61800003 9863788
-0.079585716 0.11259905 0.61900002 9798507
-0.078533329 0.11278095 0.62 9798771
-0.07760191 0.11314477 0.62200004 9667196
-0.076417148 0.11314477 0.62200004 9537916
-0.075353332 0.11332667 0.62300003 9274236
-0.074285716 0.11350857 0.62400001 9014139
-0.073214285 0.11369047 0.625 8817786
-0.072023809 0.11369047 0.625 8556152
-0.070833333 0.11369047 0.625 8359287
-0.069754288 0.11387239 0.62600005 8162680
-0.068780951 0.1142362 0.62800002 7638394
-0.067584768 0.1142362 0.62800002 7179895
-0.066494286 0.1144181 0.62900001 6718068
-0.065296195 0.1144181 0.62900001 6321776
-0.064301908 0.11478192 0.63100004 5991277
-0.15845238 0.062804759 0.60500002 3879470
-0.15730001 0.062804759 0.60500002 3549994
-0.15640572 0.062908575 0.60600001 3285543
-0.15525143 0.062908575 0.60600001 3023136
-0.15384287 0.062804759 0.60500002 3023129
-0.063199997 0.11496381 0.63200003 5660775
-0.06209429 0.11514571 0.63300002 5327969
-0.060888574 0.11514571 0.63300002 5060957
-0.059777141 0.11532762 0.634 4797018
-0.058569524 0.11532762 0.634 4533062
-0.057452384 0.11550953 0.63500005 4332338
-0.05633143 0.11569143 0.63600004 4197421
-0.055120002 0.11569143 0.63600004 4000041
-0.054162864 0.11623715 0.63900006 3868451
-0.052945718 0.11623715 0.63900006 3672093
-0.051971432 0.11678286 0.64200002 3475739
-0.050748575 0.11678286 0.64200002 3220762
-0.052282859 0.033052381 0.63100004 7628125
-0.051080953 0.033052381 0.63100004 7233366
-0.049879052 0.033052381 0.63100004 6838096
-0.048677146 0.033052381 0.63100004 6509129
-0.047324762 0.032947619 0.62900001 6115138
-0.046126667 0.032947619 0.62900001 5785664
-0.044857144 0.032895237 0.62800002 5456702
-0.043660954 0.032895237 0.62800002 5127993
-0.042464763 0.032895237 0.62800002 4799541
-0.041202858 0.032842856 0.62700003 4536626
-0.039880954 0.032738093 0.625 4208431
-0.038319048 0.032423813 0.61900002 3946283
-0.036960002 0.032266673 0.61600006 4011560
-0.03572857 0.032214288 0.61500001 4142128
-0.17009714 0.02413143 0.61800003 5524295
-0.16837335 0.024053335 0.61600006 5326654
-0.16720001 0.024053335 0.61600006 5194811
-0.16575713 0.024014285 0.61500001 4997176
-0.16271238 0.023740953 0.60800004 4866103
-0.16102286 0.023662858 0.60600001 4931381
-0.15960477 0.023623809 0.60500002 5062454
-0.15792859 0.023545716 0.60300004 4931640
-0.15626 0.023467619 0.60100001 4866614
-0.15408286 0.023311427 0.597 4932405
-0.15243334 0.023233334 0.59500003 4997687
-0.15104572 0.023194287 0.59400004 4997434
-0.14966193 0.023155238 0.59300005 5062458
-0.1482819 0.02311619 0.59200001 5127994
-0.14665715 0.023038095 0.59000003 5259068
-0.14430001 0.022842858 0.58500004 5062719
-0.14269619 0.022764761 0.583 4866111
-0.14110002 0.022686668 0.58100003 4538687
-0.13975239 0.022647621 0.58000004 4274745
-0.13840859 0.022608573 0.57900006 5255986
-0.13730574 0.022608573 0.57900006 6249816
-0.13620287 0.022608573 0.57900006 8093055
-0.13510001 0.022608573 0.57900006 9930362
-0.13399714 0.022608573 0.57900006 9798518
-0.13289431 0.022608573 0.57900006 9667448
-0.13201906 0.022647621 0.58000004 9798267
-0.13114001 0.022686668 0.58100003 9994872
-0.13025714 0.022725716 0.58200002 9864054
-0.12914857 0.022725716 0.58200002 9732982
-0.12804 0.022725716 0.58200002 9667447
-0.12714952 0.022764761 0.583 9667447
-0.12625524 0.022803811 0.58400005 9733240
-0.12535715 0.022842858 0.58500004 9864056
-0.12445524 0.022881905 0.58600003 9732728
-0.12354953 0.022920953 0.58700001 9667195
-0.12243143 0.022920953 0.58700001 9667198
-0.12152 0.02296 0.588 9732729
-0.1204 0.02296 0.588 9732981
-0.11948287 0.02299905 0.58900005 9732724
-0.11856191 0.023038095 0.59000003 9667188
-0.11763714 0.023077143 0.59100002 9666933
-0.11651143 0.023077143 0.59100002 9666934
-0.1157762 0.023155238 0.59300005 9666934
-0.11464668 0.023155238 0.59300005 9667190
-0.11370858 0.023194287 0.59400004 9732727
-0.11276667 0.023233334 0.59500003 9667449
-0.11163334 0.023233334 0.59500003 9602166
-0.11068571 0.023272382 0.59600002 9733491
-0.10973428 0.023311427 0.597 9864565
-0.10877906 0.023350477 0.59800005 9930104
-0.10764001 0.023350477 0.59800005 10061433
-0.034388572 0.032057147 0.61200005 4404536
-0.033277143 0.032109525 0.61300004 4667456
-0.032109525 0.032109525 0.61300004 4536649
-0.030941907 0.032109525 0.61300004 4474447
-0.029774288 0.032109525 0.61300004 6117718
-0.028606668 0.032109525 0.61300004 7756634
-0.027439049 0.032109525 0.61300004 8155231
-0.028157143 0.034414288 0.65700001 8615269
-0.026946669 0.034466669 0.65800005 8681579
-0.02577143 0.034571432 0.66000003 8813421
-0.024551429 0.034623809 0.66100001 8878959
-0.13808475 -0.035219997 0.58700001 6378826
-0.13696666 -0.035219997 0.58700001 6444102
-0.13561715 -0.035160001 0.58600003 6116162
-0.13404192 -0.035040002 0.58400005 5789520
-0.1327019 -0.034979999 0.583 7822175
-0.13159144 -0.034979999 0.583 9859177
-0.13070476 -0.035040002 0.58400005 9995892
-0.12959239 -0.035040002 0.58400005 10126455
-0.12826 -0.034979999 0.583 9929595
-0.12736763 -0.035040002 0.58400005 9798265
-0.12625524 -0.035040002 0.58400005 9798264
-0.12535715 -0.035100002 0.58500004 9863800
-0.12445524 -0.035160001 0.58600003 9798520
-0.12333906 -0.035160001 0.58600003 9798522
-0.12222286 -0.035160001 0.58600003 9733245
-0.12131333 -0.035219997 0.58700001 9732986
-0.12019524 -0.035219997 0.58700001 9732984
-0.11928 -0.035279997 0.588 9733242
-0.11836096 -0.03534 0.58900005 9800572
-0.1174381 -0.035400003 0.59000003 9862980
-0.17189336 0.017013336 0.61600006 5722188
-0.17072001 0.017013336 0.61600006 5656652
-0.16927142 0.016985714 0.61500001 5590085
-0.1681 0.016985714 0.61500001 5392959
-0.16665715 0.016958095 0.61400002 5194552
-0.16387048 0.016792383 0.60800004 4800562
-0.16244477 0.016764762 0.60700005 4407350
-0.16075714 0.016709523 0.60500002 4669497
-0.15934096 0.016681906 0.60400003 4931642
-0.15792859 0.016654287 0.60300004 4931899
-0.156 0.01657143 0.60000002 4931897
-0.15485714 0.01657143 0.60000002 4866360
-0.15294571 0.016488571 0.597 4865849
-0.1513 0.016433334 0.59500003 4800315
-0.14915715 0.016322857 0.59100002 4800316
-0.14727999 0.016240001 0.588 4800574
-0.11631429 -0.035400003 0.59000003 7012620
-0.11519048 -0.035400003 0.59000003 4272234
-0.11426 -0.035460003 0.59100002 10463175
-0.11313429 -0.035460003 0.59100002 16707810
-0.11219809 -0.035520002 0.59200001 16711422
-0.11107048 -0.035520002 0.59200001 16711396
-0.10994286 -0.035520002 0.59200001 16711371
-0.10918286 -0.035640001 0.59400004 16692607
-0.10823333 -0.035700001 0.59500003 10435891
-0.10764001 -0.035880003 0.59800005 4267802
-0.10650096 -0.035880003 0.59800005 2162945
-0.10536192 -0.035880003 0.59800005 65841
-0.10422286 -0.035880003 0.59800005 65889
-0.1032562 -0.035940003 0.59900004 131417
-0.10228571 -0.036000002 0.60000002 328017
-0.10131142 -0.036059998 0.60100001 592179
-0.10033335 -0.036120001 0.60200006 2101525
-0.099351436 -0.036180001 0.60300004 3613211
-0.098202862 -0.036180001 0.60300004 3747361
-0.097215243 -0.03624 0.60400003 3943970
-0.096064761 -0.03624 0.60400003 3681828
-0.095071435 -0.0363 0.60500002 3417887
-0.12347428 -0.051306669 0.59200001 6313298
-0.12214001 -0.05122 0.59100002 6378841
-0.12101429 -0.05122 0.59100002 7493728
-0.11988857 -0.05122 0.59100002 8679263
-0.11876286 -0.05122 0.59100002 8555870
-0.11783619 -0.051306669 0.59200001 8484940
-0.11670857 -0.051306669 0.59200001 4653370
-0.1157762 -0.051393338 0.59300005 917830
-0.11484001 -0.051480003 0.59400004 8817235
-0.11370858 -0.051480003 0.59400004 16702887
-0.11257715 -0.051480003 0.59400004 16711420
-0.11144572 -0.051480003 0.59400004 16709562
-0.11050001 -0.051566672 0.59500003 13752441
-0.10936667 -0.051566672 0.59500003 10835261
-0.10823333 -0.051566672 0.59500003 5439745
-0.1071 -0.051566672 0.59500003 74037
-0.10614476 -0.051653333 0.59600002 1982825
-0.10518571 -0.051739998 0.597 3947126
-0.10404857 -0.051739998 0.597 3880067
-0.10308381 -0.051826671 0.59800005 3873346
-0.10194477 -0.051826671 0.59800005 1966337
-0.10097429 -0.051913336 0.59900004 131356
-0.099833339 -0.051913336 0.59900004 5964087
-0.099351436 -0.052260004 0.60300004 11821935
-0.098202862 -0.052260004 0.60300004 14286503
-0.097054288 -0.052260004 0.60300004 16711335
-0.095746674 -0.052173339 0.60200006 16711336
-0.094757155 -0.052260004 0.60300004 16699236
-0.093763813 -0.052346669 0.60400003 9133344
-0.092919998 -0.052519999 0.60600001 1644076
-0.092220001 -0.052780002 0.60900003 4131384
-0.090910487 -0.052693337 0.60800004 6647131
-0.089900002 -0.052780002 0.60900003 8225663
-0.088739999 -0.052780002 0.60900003 9864059
-0.087867618 -0.052953333 0.611 9732984
-0.086703807 -0.052953333 0.611 9667193
-0.08568 -0.053040005 0.61200005 9798010
-0.08451429 -0.053040005 0.61200005 9994874
-0.083620951 -0.053213332 0.61400002 9929595
-0.082585715 -0.053300001 0.61500001 9929594
-0.081414282 -0.053300001 0.61500001 9995385
-0.080373339 -0.05338667 0.61600006 10126457
-0.079200007 -0.05338667 0.61600006 9799034
-0.078153335 -0.053473335 0.61700004 9536891
-0.076978095 -0.053473335 0.61700004 9667964
-0.076048575 -0.053646669 0.61900002 9864572
-0.074990474 -0.053733334 0.62 9799037
-0.073809519 -0.053733334 0.62 9733757
-0.072628573 -0.053733334 0.62 9733757
-0.071793333 -0.053993333 0.62300003 9733754
-0.070720002 -0.054079998 0.62400001 9799287
-0.069531433 -0.054079998 0.62400001 9864826
-0.068452381 -0.054166667 0.625 9799293
-0.067369528 -0.054253336 0.62600005 9799294
-0.066177152 -0.054253336 0.62600005 9864832
-0.06508857 -0.054340001 0.62700003 9929597
-0.063996188 -0.05442667 0.62800002 9929595
-0.062899999 -0.054513335 0.62900001 9929593
-0.061898097 -0.054686669 0.63100004 9864567
-0.060792383 -0.054773334 0.63200003 9799033
-0.059588574 -0.054773334 0.63200003 9733500
-0.058477145 -0.05486 0.63300002 9733242
-0.057271428 -0.05486 0.63300002 9733241
-0.056154288 -0.054946665 0.634 9798778
-0.054946665 -0.054946665 0.634 9798779
-0.053739045 -0.054946665 0.634 9799033
-0.052614287 -0.055033337 0.63500005 9799031
-0.051485714 -0.055120002 0.63600004 9798775
-0.050432384 -0.055293337 0.63800001 9929846
-0.049294293 -0.055380005 0.63900006 10060919
-0.048152387 -0.055466671 0.64000005 9995639
-0.046933334 -0.055466671 0.64000005 9930105
-0.045785714 -0.055553336 0.64100003 9930106
-0.044634286 -0.055640001 0.64200002 9930361
-0.043546669 -0.055813335 0.64400005 9864824
-0.042320006 -0.055813335 0.64400005 9864823
-0.041093335 -0.055813335 0.64400005 9864822
-0.039928574 -0.055900004 0.64500004 9864565
-0.038760003 -0.055986669 0.64600003 9865075
-0.037529524 -0.055986669 0.64600003 9930358
-0.036355238 -0.056073334 0.64700001 9864824
-0.035177141 -0.056159999 0.648 9864824
-0.033942856 -0.056159999 0.648 9864824
-0.032860003 -0.056420002 0.65100002 9864823
-0.03166857 -0.056506667 0.65200001 9864823
-0.030426666 -0.056506667 0.65200001 9930102
-0.02931905 -0.05676667 0.65500003 9864566
-0.028157143 -0.056939997 0.65700001 9799033
-0.094074287 -0.036359999 0.60600001 3219738
-0.093073338 -0.036420003 0.60700005 3085842
-0.092068575 -0.036480002 0.60800004 2755594
-0.091060005 -0.036540002 0.60900003 2498107
-0.090195239 -0.036660001 0.611 6189932
-0.089031428 -0.036660001 0.611 9867123
-0.087867618 -0.036660001 0.611 9800826
-0.086845718 -0.036720004 0.61200005 9733757
-0.08568 -0.036720004 0.61200005 9733761
-0.084790483 -0.036840003 0.61400002 9733502
-0.083620951 -0.036840003 0.61400002 9799036
-0.082585715 -0.036899999 0.61500001 9865084
-0.023292381 0.034623809 0.66100001 9010033
-0.022066668 0.034676194 0.66200006 9141363
-0.020837145 0.034728575 0.66300005 9207153
-0.019574286 0.034728575 0.66300005 9272944
-0.018366667 0.034833334 0.66500002 9338738
-0.017099999 0.034833334 0.66500002 9339252
-0.015857141 0.034885716 0.66600001 9405044
-0.14158572 0.034979999 0.583 4866111
-0.13999334 0.03486 0.58100003 4800566
-0.13864763 0.0348 0.58000004 4863277
-0.13730574 0.034740005 0.57900006 4934228
-0.13620287 0.034740005 0.57900006 7371131
-0.13510001 0.034740005 0.57900006 9865844
-0.13399714 0.034740005 0.57900006 9732974
-0.13312382 0.0348 0.58000004 9602162
-0.13224667 0.03486 0.58100003 9667702
-0.13136572 0.03492 0.58200002 9798259
-0.13025714 0.03492 0.58200002 9732721
-0.12914857 0.03492 0.58200002 9732721
-0.12826 0.034979999 0.583 9666930
-0.12736763 0.035040002 0.58400005 9601396
-0.12647144 0.035100002 0.58500004 9601142
-0.12557143 0.035160001 0.58600003 9666678
-0.12445524 0.035160001 0.58600003 9535606
-0.12354953 0.035219997 0.58700001 9470071
-0.12264 0.035279997 0.588 9601401
-0.12172668 0.03534 0.58900005 9798262
-0.12060477 0.03534 0.58900005 9864051
-0.11968572 0.035400003 0.59000003 9930100
-0.11876286 0.035460003 0.59100002 9995638
-0.11763714 0.035460003 0.59100002 10061685
-0.11670857 0.035520002 0.59200001 9995893
-0.1157762 0.035580005 0.59300005 9930361
-0.11484001 0.035640001 0.59400004 9995646
-0.11370858 0.035640001 0.59400004 10061179
-0.11276667 0.035700001 0.59500003 10061176
-0.11163334 0.035700001 0.59500003 10060920
-0.11068571 0.03576 0.59600002 9995385
-0.10955048 0.03576 0.59600002 9930104
-0.10859714 0.03582 0.597 9864823
-0.10764001 0.035880003 0.59800005 9799290
-0.10667905 0.035940003 0.59900004 9930110
-0.1055381 0.035940003 0.59900004 9995644
-0.10457143 0.036000002 0.60000002 9929851
-0.10360095 0.036059998 0.60100001 9864315
-0.10262667 0.036120001 0.60200006 9995644
-0.10148001 0.036120001 0.60200006 10061435
-0.10050001 0.036180001 0.60300004 10060922
-0.099351436 0.036180001 0.60300004 9995128
-0.098365717 0.03624 0.60400003 9929847
-0.097215243 0.03624 0.60400003 9929846
-0.096223809 0.0363 0.60500002 9864566
-0.095228568 0.036359999 0.60600001 9864819
-0.094074287 0.036359999 0.60600001 9798768
-0.093073338 0.036420003 0.60700005 9798515
-0.092068575 0.036480002 0.60800004 9732982
-0.091060005 0.036540002 0.60900003 9733236
-0.090195239 0.036660001 0.611 9733235
-0.089031428 0.036660001 0.611 9667959
-0.088011436 0.036720004 0.61200005 9733499
-0.086845718 0.036720004 0.61200005 9864569
-0.085820004 0.036780003 0.61300004 9930104
-0.084790483 0.036840003 0.61400002 9995640
-0.083620951 0.036840003 0.61400002 9995641
-0.082585715 0.036899999 0.61500001 10061177
-0.1104162 0.10001048 0.60700005 2958112
-0.10926001 0.10001048 0.60700005 2892832
-0.10810382 0.10001048 0.60700005 2959649
-0.10694763 0.10001048 0.60700005 3023386
-0.10561714 0.099845707 0.60600001 3022611
-0.1041181 0.099516191 0.60400003 3021601
-0.10279715 0.099351436 0.60300004 2167087
-0.10181715 0.099516191 0.60400003 1392973
-0.10066667 0.099516191 0.60400003 5533547
-0.099516191 0.099516191 0.60400003 9731187
-0.098528571 0.099680953 0.60500002 9865852
-0.097537145 0.099845707 0.60600001 10061174
-0.096541911 0.10001048 0.60700005 9995121
-0.095385723 0.10001048 0.60700005 9994865
-0.094229534 0.10001048 0.60700005 9994864
-0.093380004 0.10034 0.60900003 9994868
-0.09252286 0.10066953 0.611 9929336
-0.091359049 0.10066953 0.611 9863797
-0.090342864 0.10083429 0.61200005 9798258
-0.089177154 0.10083429 0.61200005 9732466
-0.088299051 0.10116381 0.61400002 9798771
-0.087129526 0.10116381 0.61400002 9864049
-0.086099997 0.10132857 0.61500001 9798256
-0.084928572 0.10132857 0.61500001 9732468
-0.083893336 0.10149334 0.61600006 9732472
-0.082720011 0.10149334 0.61600006 9732468
-0.081546672 -0.036960002 0.61600006 9930619
-0.080373339 -0.036960002 0.61600006 9995900
-0.079328574 -0.037020002 0.61700004 9864830
-0.078153335 -0.037020002 0.61700004 9799292
-0.077102862 -0.037080001 0.61800003 9733755
-0.076048575 -0.037140001 0.61900002 9668218
-0.074990474 -0.0372 0.62 9537402
-0.073809519 -0.0372 0.62 9471099
-0.072862864 -0.037319999 0.62200004 9602429
-0.071793333 -0.037379999 0.62300003 9733500
-0.070720002 -0.037439998 0.62400001 9733500
-0.069531433 -0.037439998 0.62400001 9733500
-0.068452381 -0.037499998 0.625 9733500
-0.067369528 -0.037560005 0.62600005 9799035
-0.06638857 -0.037680004 0.62800002 9798778
-0.065192387 -0.037680004 0.62800002 9864312
-0.064098097 -0.03774 0.62900001 9864309
-0.062899999 -0.03774 0.62900001 9930102
-0.061701905 -0.03774 0.62900001 9930358
-0.060696192 -0.037860002 0.63100004 9995639
-0.059588574 -0.037920002 0.63200003 9930104
-0.058477145 -0.037980001 0.63300002 9930105
-0.057361905 -0.038040001 0.634 9930618
-0.056154288 -0.038040001 0.634 9930362
-0.055033337 -0.038100004 0.63500005 9930107
-0.053908575 -0.03816 0.63600004 9929851
-0.052697148 -0.03816 0.63600004 9929595
-0.051647618 -0.038279999 0.63800001 9929849
-0.050432384 -0.038279999 0.63800001 9864567
-0.049294293 -0.038340002 0.63900006 9799029
-0.026946669 -0.057026673 0.65800005 9733500
-0.02577143 -0.0572 0.66000003 9733755
-0.024551429 -0.057286669 0.66100001 9735035
-0.023292381 -0.057286669 0.66100001 9797469
-0.022066668 -0.057373337 0.66200006 5980991
-0.020805717 -0.057373337 0.66200006 2236984
-0.019574286 -0.057460003 0.66300005 3080497
-0.01831143 -0.057460003 0.66300005 3958084
-0.017048571 -0.057460003 0.66300005 9619799
-0.015785715 -0.057460003 0.66300005 15249223
-0.014566666 -0.057633337 0.66500002 10655287
-0.01332 -0.057719998 0.66600001 6100768
-0.012069525 -0.057806671 0.66700006 3997961
-0.010847619 -0.058066666 0.67000002 1967388
-0.0095857149 -0.058153335 0.671 2099503
-0.008320001 -0.058240004 0.67200005 2239039
-0.007060953 -0.058413334 0.67400002 2760270
-0.0057771429 -0.058413334 0.67400002 3296097
-0.0044933339 -0.058413334 0.67400002 6391157
-0.0032095239 -0.058413334 0.67400002 9466988
-0.0019257143 -0.058413334 0.67400002 8089187
-0.048077144 -0.038340002 0.63900006 9799028
-0.046933334 -0.038400002 0.64000005 9864568
-0.045785714 -0.038460001 0.64100003 9799036
-0.044634286 -0.038520001 0.64200002 9733498
-0.04341143 -0.038520001 0.64200002 9799544
-0.042320006 -0.038640004 0.64400005 9865084
-0.041157145 -0.038700003 0.64500004 9865088
-0.039990477 -0.038760003 0.64600003 9930621
-0.038760003 -0.038760003 0.64600003 9799291
-0.037587617 -0.038820002 0.64700001 9733496
-0.036355238 -0.038820002 0.64700001 9667701
-0.035177141 -0.038880002 0.648 9667446
-0.034047622 -0.039000001 0.65000004 9666678
-0.032910477 -0.03912 0.65200001 9733240
-0.031717144 -0.039180003 0.65300006 9732986
-0.030566668 -0.039300002 0.65500003 9733246
-0.02931905 -0.039300002 0.65500003 9865858
-0.028114285 -0.039360002 0.65600002 9997159
-0.026905714 -0.039419997 0.65700001 5579340
-0.025693335 -0.039480001 0.65800005 1245578
-0.024440002 -0.039480001 0.65800005 8953033
-0.023257142 -0.0396 0.66000003 16645857
-0.022 -0.0396 0.66000003 16645882
-0.020742858 -0.0396 0.66000003 16707477
-0.019485716 -0.0396 0.66000003 8348720
-0.018256191 -0.039659999 0.66100001 66119
-0.017022859 -0.039720006 0.66200006 4660575
-0.015833333 -0.039900001 0.66500002 9351585
-0.014654286 -0.040140003 0.66900003 13041379
-0.01338 -0.040140003 0.66900003 16711404
-0.01212381 -0.040200002 0.67000002 16711414
-0.010847619 -0.040200002 0.67000002 16704418
-0.0095714284 -0.040200002 0.67000002 10003534
-0.0083076181 -0.040259998 0.671 3342632
-0.0070400005 -0.040320002 0.67200005 1769730
-0.0057771429 -0.040440001 0.67400002 196911
-0.0044933339 -0.040440001 0.67400002 131420
-0.0032142857 -0.0405 0.67500001 65881
-0.0019285715 -0.0405 0.67500001 65878
-0.00064380956 -0.040560003 0.67600006 65873
0.00064571429 -0.040679999 0.67800003 4336716
0.0019400001 -0.040739998 0.67900002 8686182
0.0032333334 -0.040739998 0.67900002 9342593
0.0045333337 -0.040800001 0.68000001 9995387
0.005828571 -0.040800001 0.68000001 9929845
0.0071447622 -0.040920004 0.68200004 9864567
0.00844381 -0.040920004 0.68200004 10061433
0.0097571434 -0.040980004 0.68300003 10321772
0.011058095 -0.040980004 0.68300003 8285279
0.012359047 -0.040980004 0.68300003 6316125
-0.081679054 0.037020002 0.61700004 10127226
-0.080634288 0.037080001 0.61800003 10193273
-0.079457149 0.037080001 0.61800003 10127224
-0.078406669 0.037140001 0.61900002 10061436
-0.077352382 0.0372 0.62 10127232
-0.076171428 0.0372 0.62 10127228
-0.075232387 0.037319999 0.62200004 10061688
-0.074166663 0.037379999 0.62300003 10061176
-0.12080953 0.082600005 0.59000003 2827303
-0.11988857 0.082740009 0.59100002 2761768
-0.11956667 0.083300002 0.59500003 2368298
-0.11843333 0.083300002 0.59500003 2038037
-0.1173 0.083300002 0.59500003 2565377
-0.11616667 0.083300002 0.59500003 3156278
-0.11503334 0.083300002 0.59500003 5527147
-0.11390001 0.083300002 0.59500003 7963516
-0.11276667 0.083300002 0.59500003 8356238
-0.11182095 0.083439998 0.59600002 8814407
-0.11105715 0.083720006 0.59800005 5851649
-0.11010192 0.08386001 0.59900004 2889271
-0.10896096 0.08386001 0.59900004 5597806
-0.108 0.084000006 0.60000002 8371894
-0.10685714 0.084000006 0.60000002 11853566
-0.1055381 0.08386001 0.59900004 15269629
-0.10457143 0.084000006 0.60000002 15990524
-0.10360095 0.084140003 0.60100001 16711391
-0.10262667 0.084280007 0.60200006 15465666
-0.10164858 0.084420003 0.60300004 14201697
-0.10066667 0.084559999 0.60400003 7144705
-0.099680953 0.084700003 0.60500002 131349
-0.098691426 0.08484 0.60600001 1579049
-0.0976981 0.084980011 0.60700005 3088159
-0.096541911 0.084980011 0.60700005 2760213
-0.095542863 0.085120007 0.60800004 2497820
-0.094540007 0.085260004 0.60900003 1971748
-0.093380004 0.085260004 0.60900003 1445650
-0.09252286 0.085540004 0.611 4469505
-0.091359049 0.085540004 0.611 7488831
-0.090342864 0.08568 0.61200005 9211005
-0.089177154 0.08568 0.61200005 10981496
-0.08815524 0.085820004 0.61300004 10652019
-0.086987622 0.085820004 0.61300004 10324343
-0.085960001 0.085960001 0.61400002 10193020
-0.084928572 0.086099997 0.61500001 10127480
-0.08375714 0.086099997 0.61500001 10193269
-0.082585715 0.086099997 0.61500001 10259062
-0.081546672 0.086240008 0.61600006 10061432
-0.080503814 0.086380005 0.61700004 9930098
-0.079328574 0.086380005 0.61700004 9863789
-0.078406669 0.086660005 0.61900002 9797491
-0.077227622 0.086660005 0.61900002 9863545
-0.076171428 0.086800002 0.62 9929336
-0.074990474 0.086800002 0.62 9798264
-0.074285716 0.087360002 0.62400001 9732981
-0.073214285 0.087499999 0.625 9667443
-0.072139047 0.087640002 0.62600005 9601907
-0.070946671 0.087640002 0.62600005 9667187
-0.069865711 0.087780006 0.62700003 9732469
-0.068671428 0.087780006 0.62700003 9732984
-0.067584768 0.087920003 0.62800002 9667197
-0.06638857 0.087920003 0.62800002 9732738
-0.065296195 0.088059999 0.62900001 9732989
-0.064301908 0.088339999 0.63100004 9798521
-0.063199997 0.088480003 0.63200003 9864311
-0.061996192 0.088480003 0.63200003 9864309
-0.060888574 0.08862 0.63300002 9929847
-0.059777141 0.088759996 0.634 9864314
-0.058569524 0.088759996 0.634 9864312
-0.057452384 0.088900007 0.63500005 9864054
-0.05633143 0.089040004 0.63600004 9929594
-0.055120002 0.089040004 0.63600004 9863806
-0.054078095 0.089320004 0.63800001 9863547
-0.052862857 0.089320004 0.63800001 9798008
-0.051728576 0.089460008 0.63900006 9798264
-0.050511435 0.089460008 0.63900006 9798264
-0.049294293 0.089460008 0.63900006 9798264
-0.048152387 0.089600012 0.64000005 9732728
-0.047006667 0.089740001 0.64100003 9667187
-0.045857143 0.089879997 0.64200002 9732719
-0.044773336 0.090160005 0.64400005 9799025
-0.043681905 0.090440005 0.64600003 9864563
-0.042517144 0.090580001 0.64700001 9930101
-0.041348573 0.090719998 0.648 9996151
-0.040238097 0.091000006 0.65000004 10062202
-0.03906 0.091140002 0.65100002 10062205
-0.03782 0.091140002 0.65100002 10062203
-0.036636192 0.091279998 0.65200001 10127225
-0.035394285 0.091279998 0.65200001 10192504
-0.034204766 0.091420002 0.65300006 10126711
-0.033061903 0.091700003 0.65500003 9995641
-0.031814288 0.091700003 0.65500003 9996668
-0.030613335 0.091839999 0.65600002 10062702
-0.029363809 0.091839999 0.65600002 7618657
-0.028157143 0.091980003 0.65700001 5247552
-0.026946669 0.092120007 0.65800005 9141024
-0.02577143 0.092399999 0.66000003 13034860
-0.024551429 0.092539996 0.66100001 12701369
-0.023292381 0.092539996 0.66100001 12433259
-0.022066668 0.092680007 0.66200006 9175326
-0.020837145 0.092820004 0.66300005 5992781
-0.019574286 0.092820004 0.66300005 8161660
-0.018366667 0.093100004 0.66500002 10323832
-0.017125715 0.09324 0.66600001 10126709
-0.015880954 0.093380012 0.66700006 9929847
-0.014654286 0.093660004 0.66900003 9930105
-0.013400001 0.093800001 0.67000002 9995640
-0.01212381 0.093800001 0.67000002 9930359
-0.010847619 0.093800001 0.67000002 9930614
-0.0095857149 0.093939997 0.671 10062709
-0.0083076181 0.093939997 0.671 10194803
-0.007060953 0.094360001 0.67400002 8218481
-0.0057771429 0.094360001 0.67400002 6243691
-0.0044933339 0.094360001 0.67400002 6179174
-0.0032095239 0.094360001 0.67400002 6116193
-0.07309714 0.037439998 0.62400001 9995640
-0.071908571 0.037439998 0.62400001 9995896
-0.070833333 0.037499998 0.625 9995897
-0.069754288 0.037560005 0.62600005 9995383
-0.068561912 0.037560005 0.62600005 9929846
-0.067477144 0.037620004 0.62700003 9929845
-0.06638857 0.037680004 0.62800002 9732981
-0.065296195 0.03774 0.62900001 9601907
-0.064301908 0.037860002 0.63100004 9732977
-0.063199997 0.037920002 0.63200003 9928820
-0.061996192 0.037920002 0.63200003 9929335
-0.060792383 0.037920002 0.63200003 9994875
-0.059682857 0.037980001 0.63300002 9865088
-0.058477145 0.037980001 0.63300002 9733494
-0.057271428 0.037980001 0.63300002 9405036
-0.056065716 0.037980001 0.63300002 9076585
-0.05486 0.037980001 0.63300002 8680294
-0.053654287 0.037980001 0.63300002 8352099
-0.052448574 0.037980001 0.63300002 8022625
-0.051161904 0.037920002 0.63200003 7694938
-0.050037142 0.037980001 0.63300002 7364436
-0.048831429 0.037980001 0.63300002 7035728
-0.047625713 0.037980001 0.63300002 6772812
-0.046346668 0.037920002 0.63200003 6509896
-0.045142859 0.037920002 0.63200003 6245956
-0.04393905 0.037920002 0.63200003 5982786
-0.042735238 0.037920002 0.63200003 5719104
-0.041531429 0.037920002 0.63200003 5520957
-0.040263813 0.037860002 0.63100004 5454906
-0.039061908 0.037860002 0.63100004 5454658
-0.037860002 0.037860002 0.63100004 5585738
-0.036658097 0.037860002 0.63100004 5716818
-0.035175238 0.037560005 0.62600005 6179418
-0.03534 0.03906 0.65100002 6642271
-0.034204766 0.039180003 0.65300006 7103332
-0.032960951 0.039180003 0.65300006 7564389
-0.031814288 0.039300002 0.65500003 8155494
-0.030566668 0.039300002 0.65500003 8747109
-0.02931905 0.039300002 0.65500003 8813157
-0.028114285 0.039360002 0.65600002 8944486
-0.026864761 0.039360002 0.65600002 9075816
-0.025693335 0.039480001 0.65800005 9272937
-0.024514288 0.0396 0.66000003 9207403
-0.023257142 0.0396 0.66000003 9141869
-0.022033334 0.039659999 0.66100001 9207408
-0.020805717 0.039720006 0.66200006 9273197
-0.019574286 0.039780006 0.66300005 9273194
-0.018366667 0.039900001 0.66500002 9338734
-0.017099999 0.039900001 0.66500002 9404274
-0.015857141 0.039960001 0.66600001 9404020
-0.014610478 0.040020004 0.66700006 9404534
-0.013340001 0.040020004 0.66700006 9470330
-0.042532381 0.029353334 0.62900001 5524789
-0.041268572 0.029306667 0.62800002 5326130
-0.040072381 0.029306667 0.62800002 4997423
-0.038876191 0.029306667 0.62800002 4668721
-0.036420003 0.028326668 0.60700005 4471091
-0.035263814 0.028326668 0.60700005 4274233
-0.034107622 0.028326668 0.60700005 4339775
-0.033005714 0.028373335 0.60800004 4408134
-0.031847622 0.028373335 0.60800004 5395532
-0.030689526 0.028373335 0.60800004 6382685
-0.029531429 0.028373335 0.60800004 7369837
-0.028420001 0.028420001 0.60900003 8352618
-0.027349524 0.028513333 0.611 8418152
-0.026185716 0.028513333 0.611 8483434
-0.025062859 0.028560003 0.61200005 8549485
-0.023897145 0.028560003 0.61200005 8615532
-0.024551429 0.030846667 0.66100001 8813162
-0.023327621 0.030893337 0.66200006 9010028
-0.022100002 0.030940004 0.66300005 9075822
-0.020837145 0.030940004 0.66300005 9207407
-0.019574286 0.030940004 0.66300005 9273201
-0.01831143 0.030940004 0.66300005 9339250
-0.017099999 0.031033335 0.66500002 9405300
-0.015833333 0.031033335 0.66500002 9470837
-0.014588571 0.031079998 0.66600001 9733239
-0.01332 0.031079998 0.66600001 9995128
-0.012069525 0.031126669 0.66700006 9798266
-0.010831429 0.031220002 0.66900003 9667191
-0.0095571438 0.031220002 0.66900003 9536372
-0.0083076181 0.031313334 0.671 9470836
-0.0070400005 0.03136 0.67200005 9536373
-0.0057600001 0.03136 0.67200005 9601909
-0.0044933339 0.031453334 0.67400002 9667446
-0.0032095239 0.031453334 0.67400002 9733236
-0.0019285715 0.031500001 0.67500001 9799027
-0.00064285717 0.031500001 0.67500001 9864565
0.00064380956 0.031546671 0.67600006 9864824
0.001937143 0.031640001 0.67800003 9930618
0.0032380952 0.031733334 0.68000001 9996411
0.0045333337 0.031733334 0.68000001 10061945
0.0058457148 0.031826667 0.68200004 10127479
0.0071552387 0.031873334 0.68300003 10259570
0.00844381 0.031826667 0.68200004 8354926
0.0097571434 0.031873334 0.68300003 6521192
0.011074286 0.031919997 0.68400002 11568995
0.012413334 0.032013334 0.68600005 16682894
0.013740001 0.032060001 0.68700004 16684986
0.015114286 0.032200001 0.69000006 16703612
0.016452381 0.032246668 0.69100004 11028287
0.017820001 0.032340001 0.69300002 5461600
0.01914 0.032340001 0.69300002 7969665
0.020489523 0.032386668 0.69400001 10522227
0.021811429 0.032386668 0.69400001 8481382
-0.012105715 0.040140003 0.66900003 9470334
-0.010831429 0.040140003 0.66900003 9470330
-0.0095714284 0.040200002 0.67000002 9535862
-0.008320001 0.040320002 0.67200005 9601909
-0.047776196 0.044147622 0.63500005 8154969
-0.046640005 0.044217143 0.63600004 8219993
-0.045428574 0.044217143 0.63600004 8153434
-0.04435619 0.04435619 0.63800001 8088923
-0.043140952 0.04435619 0.63800001 8089948
-0.10017524 -0.085120007 0.60800004 6576730
-0.16502859 -0.0063695242 0.60800004 5192254
-0.16360097 -0.0063590482 0.60700005 4996148
-0.16217713 -0.0063485713 0.60600001 4864818
-0.16075714 -0.0063380953 0.60500002 4930352
-0.15907715 -0.0063171433 0.60300004 4995891
-0.15714286 -0.0062857145 0.60000002 4930357
-0.15574001 -0.0062752385 0.59900004 4865079
-0.15408286 -0.0062542856 0.597 4734264
-0.15268953 -0.0062438096 0.59600002 4668215
-0.15053713 -0.0062019047 0.59200001 4733493
-0.14890477 -0.0061809528 0.59000003 4799028
-0.14727999 -0.0061599999 0.588 4799027
-0.14516573 -0.0061180959 0.58400005 4864563
-0.14380667 -0.006107619 0.583 4799284
-0.14245144 -0.0060971431 0.58200002 4734519
-0.14085715 -0.0060761911 0.58000004 4011834
-0.13951144 -0.0060657146 0.57900006 3353668
-0.13840859 -0.0060657146 0.57900006 5919310
-0.12625524 -0.010567619 0.58400005 9732985
-0.12535715 -0.010585715 0.58500004 9798263
-0.12445524 -0.01060381 0.58600003 9864565
-0.12354953 -0.010621904 0.58700001 9929847
-0.12264 -0.01064 0.588 9798777
-0.12172668 -0.010658096 0.58900005 9733240
-0.12060477 -0.010658096 0.58900005 9733240
-0.11968572 -0.010676191 0.59000003 9733240
-0.11856191 -0.010676191 0.59000003 9733241
-0.11763714 -0.010694286 0.59100002 9798780
-0.11670857 -0.010712381 0.59200001 9798783
-0.1157762 -0.010730477 0.59300005 9798780
-0.11464668 -0.010730477 0.59300005 9799033
-0.11351715 -0.010730477 0.59300005 9799033
-0.11257715 -0.010748573 0.59400004 9798520
-0.11163334 -0.010766666 0.59500003 9864569
-0.11050001 -0.010766666 0.59500003 9799033
-0.10973428 -0.010802858 0.597 9798778
-0.10877906 -0.010820953 0.59800005 9733243
-0.10764001 -0.010820953 0.59800005 9667708
-0.10650096 -0.010820953 0.59800005 9733757
-0.1055381 -0.010839048 0.59900004 9798780
-0.10457143 -0.010857143 0.60000002 9798779
-0.10360095 -0.010875239 0.60100001 9864316
-0.10262667 -0.010893334 0.60200006 9995644
-0.10148001 -0.010893334 0.60200006 10126717
-0.10050001 -0.010911429 0.60300004 9995646
-0.099351436 -0.010911429 0.60300004 9930109
-0.098365717 -0.010929525 0.60400003 9930876
-0.097215243 -0.010929525 0.60400003 9996155
-0.13706857 -0.0060552382 0.57800001 8486507
-0.13596763 -0.0060552382 0.57800001 8951432
-0.13486667 -0.0060552382 0.57800001 9469539
-0.13399714 -0.0060657146 0.57900006 7678270
-0.13289431 -0.0060657146 0.57900006 5969460
-0.099180005 -0.085260004 0.60900003 6576730
-0.098020002 -0.085260004 0.60900003 6575957
-0.096541911 -0.084980011 0.60700005 6378832
-0.095228568 -0.08484 0.60600001 6248536
-0.094074287 -0.08484 0.60600001 7629152
-0.093073338 -0.084980011 0.60700005 9075819
-0.09191715 -0.084980011 0.60700005 9343095
-0.091060005 -0.085260004 0.60900003 9670261
-0.089900002 -0.085260004 0.60900003 9866612
-0.088739999 -0.085260004 0.60900003 10128756
-0.087867618 -0.085540004 0.611 9866612
-0.086703807 -0.085540004 0.611 9604212
-0.08568 -0.08568 0.61200005 9735028
-0.084652379 -0.085820004 0.61300004 9864820
-0.083484761 -0.085820004 0.61300004 9798260
-0.014588571 0.034885716 0.66600001 9273973
-0.013340001 0.034938097 0.66700006 9208437
-0.012105715 0.03504286 0.66900003 9339510
-0.010831429 0.03504286 0.66900003 9470838
-0.0095714284 0.035095241 0.67000002 9536374
-0.008320001 0.035200004 0.67200005 9536631
-0.007060953 0.035304762 0.67400002 9536632
-0.0057771429 0.035304762 0.67400002 9471097
-0.0044933339 0.035304762 0.67400002 9602171
-0.0032142857 0.035357144 0.67500001 9733501
-0.0019314287 0.035409529 0.67600006 9799039
-0.00064571429 0.035514288 0.67800003 9930621
0.00064571429 0.035514288 0.67800003 9996411
0.0019400001 0.035566669 0.67900002 10127739
0.0032380952 0.03561905 0.68000001 10061948
0.004546667 0.035723813 0.68200004 10061948
0.0058457148 0.035723813 0.68200004 10127484
0.0071552387 0.035776194 0.68300003 10193020
0.0084685711 0.035828575 0.68400002 9799548
0.009771429 0.035828575 0.68400002 9339198
-0.14591143 0.016212381 0.58700001 4865854
-0.14405334 0.016129524 0.58400005 4996926
-0.14269619 0.016101904 0.583 5127997
-0.14110002 0.016046667 0.58100003 4472635
-0.13975239 0.016019048 0.58000004 3881016
-0.13840859 0.015991431 0.57900006 5255989
-0.13730574 0.015991431 0.57900006 6709848
-0.13620287 0.015991431 0.57900006 8357244
-0.13510001 0.015991431 0.57900006 9995128
-0.13399714 0.015991431 0.57900006 9863285
-0.13312382 0.016019048 0.58000004 9732724
-0.13224667 0.016046667 0.58100003 9667700
-0.13136572 0.016074285 0.58200002 9667701
-0.13025714 0.016074285 0.58200002 9602167
-0.12914857 0.016074285 0.58200002 9601910
-0.12826 0.016101904 0.583 9601910
-0.12736763 0.016129524 0.58400005 9602167
-0.12625524 0.016129524 0.58400005 9668216
-0.12535715 0.016157143 0.58500004 9733493
-0.12445524 0.016184764 0.58600003 9798771
-0.12354953 0.016212381 0.58700001 9929848
-0.12264 0.016240001 0.588 9864318
-0.12152 0.016240001 0.588 9798524
-0.12060477 0.01626762 0.58900005 9732986
-0.11948287 0.01626762 0.58900005 9732728
-0.11856191 0.016295239 0.59000003 9536119
-0.1174381 0.016295239 0.59000003 9405302
-0.11651143 0.016322857 0.59100002 9733238
-0.1157762 0.016378097 0.59300005 10060664
-0.11484001 0.016405717 0.59400004 9929595
-0.11370858 0.016405717 0.59400004 9798521
-0.11276667 0.016433334 0.59500003 9732984
-0.11163334 0.016433334 0.59500003 9732984
-0.11068571 0.016460953 0.59600002 9732984
-0.10955048 0.016460953 0.59600002 9798774
-0.10859714 0.016488571 0.597 9799028
-0.10764001 0.016516192 0.59800005 9864563
-0.10650096 0.016516192 0.59800005 9864819
-0.1055381 0.016543809 0.59900004 9864822
-0.10439715 0.016543809 0.59900004 9930361
-0.10342857 0.01657143 0.60000002 10061433
-0.10245619 0.016599048 0.60100001 10061690
-0.10148001 0.016626669 0.60200006 10127226
-0.10033335 0.016626669 0.60200006 10127483
-0.099516191 0.016681906 0.60400003 10127226
-0.098365717 0.016681906 0.60400003 10192762
-0.09737619 0.016709523 0.60500002 10258298
-0.096223809 0.016709523 0.60500002 10192762
-0.095228568 0.016737143 0.60600001 10127481
-0.094229534 0.016764762 0.60700005 10062200
-0.093073338 0.016764762 0.60700005 9996409
-0.092068575 0.016792383 0.60800004 9930363
-0.091359049 0.016875237 0.611 9930354
-0.090195239 0.016875237 0.611 9864810
-0.089177154 0.016902858 0.61200005 9799024
-0.088011436 0.016902858 0.61200005 9864566
-0.086845718 0.016902858 0.61200005 9930104
-0.085820004 0.016930476 0.61300004 9929850
-0.084652379 0.016930476 0.61300004 9995898
-0.083620951 0.016958095 0.61400002 10061946
-0.082585715 0.016985714 0.61500001 10192764
-0.081414282 0.016985714 0.61500001 10258046
-0.080373339 0.017013336 0.61600006 10324610
-0.079200007 0.017013336 0.61600006 10787719
-0.078153335 0.017040953 0.61700004 11244414
-0.077102862 0.017068572 0.61800003 10588277
-0.075925715 0.017068572 0.61800003 9930099
-0.074869521 0.01709619 0.61900002 9599601
-0.073690474 0.01709619 0.61900002 9271403
-0.072511427 0.01709619 0.61900002 9008998
-0.071447626 0.017123809 0.62 8811874
0.011106667 0.035933334 0.68600005 9136385
0.012413334 0.035933334 0.68600005 8925222
0.013740001 0.035985716 0.68700004 8788044
0.015048572 0.035985716 0.68700004 8651089
0.016428573 0.03614286 0.69000006 8674135
0.017820001 0.0363 0.69300002 8753774
0.01914 0.0363 0.69300002 9474181
0.02046 0.0363 0.69300002 10260338
0.021780001 0.0363 0.69300002 8416607
-0.082585715 -0.086099997 0.61500001 9798005
-0.081546672 -0.086240008 0.61600006 9798006
-0.080373339 -0.086240008 0.61600006 9798258
-0.079328574 -0.086380005 0.61700004 9798767
-0.078153335 -0.086380005 0.61700004 9798767
-0.041991431 0.044425718 0.63900006 8155484
-0.04077429 0.044425718 0.63900006 8221021
-0.039619051 0.044495244 0.64000005 8351837
-0.038520001 0.044634286 0.64200002 8417118
-0.037471429 0.044842858 0.64500004 8483170
-0.036355238 0.044981908 0.64700001 8549478
-0.035177141 0.045051429 0.648 8615271
-0.034047622 0.045190476 0.65000004 8681064
-0.032910477 0.045329522 0.65200001 8747371
-0.03166857 0.045329522 0.65200001 8878445
-0.030566668 0.045538098 0.65500003 9075822
0.0084933331 0.063373342 0.68600005 9996408
0.009800001 0.063373342 0.68600005 10127224
-0.062899999 -0.088059999 0.62900001 8024685
-0.061701905 -0.088059999 0.62900001 7893361
-0.060696192 -0.088339999 0.63100004 7826548
-0.059305713 -0.088059999 0.62900001 7563383
-0.081811436 0.10182286 0.61800003 9601649
-0.080764763 0.10198762 0.61900002 9536114
-0.079714283 0.10215238 0.62 9667188
-0.078786671 0.10248192 0.62200004 9863797
-0.07760191 0.10248192 0.62200004 9798263
-0.076540001 0.10264667 0.62300003 9798004
-0.075474285 0.10281143 0.62400001 9797746
-0.074285716 0.10281143 0.62400001 9797749
-0.073214285 0.10297619 0.625 9732472
-0.072023809 0.10297619 0.625 9667446
-0.070946671 0.10314097 0.62600005 9405813
-0.069754288 0.10314097 0.62600005 9199448
-0.068671428 0.10330572 0.62700003 4588602
-0.067477144 0.10330572 0.62700003 66118
-0.06638857 0.10347048 0.62800002 262482
-0.065296195 0.10363524 0.62900001 481103
-0.064301908 0.10396477 0.63100004 4936013
-0.063199997 0.10412953 0.63200003 9401185
-0.06209429 0.10429429 0.63300002 9732981
-0.060984757 0.10445905 0.634 10125940
-0.059777141 0.10445905 0.634 9994868
-0.058661908 0.10462382 0.63500005 9863540
-0.057542857 0.10478858 0.63600004 9863285
-0.056508571 0.1051181 0.63800001 9863283
-0.055293337 0.1051181 0.63800001 9863538
-0.054162864 0.10528287 0.63900006 9863795
-0.052945718 0.10528287 0.63900006 9929588
-0.051809527 0.10544763 0.64000005 10060917
-0.050669525 0.10561238 0.64100003 10126711
-0.049448572 0.10561238 0.64100003 10192248
-0.048302859 0.10577714 0.64200002 10127225
-0.047080003 0.10577714 0.64200002 10061431
-0.046000004 0.10610668 0.64400005 10061429
-0.044842858 0.10627143 0.64500004 10126454
-0.043749522 0.10660095 0.64700001 10060919
-0.042517144 0.10660095 0.64700001 10060917
-0.041284762 0.10660095 0.64700001 10060916
-0.040114284 0.10676572 0.648 10060916
-0.039000001 0.10709524 0.65000004 10060916
-0.03782 0.10726 0.65100002 10126456
-0.036636192 0.10742477 0.65200001 10060924
-0.035394285 0.10742477 0.65200001 9995385
-0.034204766 0.10758953 0.65300006 9995383
-0.033061903 0.10791905 0.65500003 10060919
-0.031862859 0.10808381 0.65600002 9995383
-0.03066 0.10824858 0.65700001 9995383
-0.029453335 0.10841334 0.65800005 9995383
-0.028285714 0.10874286 0.66000003 9995385
-0.027069524 0.10890763 0.66100001 9995643
-0.025849525 0.10907239 0.66200006 10061177
-0.024625717 0.10923715 0.66300005 10061175
-0.023362858 0.10923715 0.66300005 10060919
-0.022100002 0.10923715 0.66300005 10061686
-0.020837145 0.10923715 0.66300005 10062963
-0.019574286 0.10923715 0.66300005 9338735
-0.018366667 0.10956667 0.66500002 8616037
-0.017048571 0.10923715 0.66300005 7491419
-0.015785715 0.10923715 0.66300005 6444118
-0.014522858 0.10923715 0.66300005 6578001
-0.058292385 -0.088339999 0.63100004 7302004
-0.05709048 -0.088339999 0.63100004 7101553
0.011106667 0.063373342 0.68600005 9996152
0.012431429 0.063465714 0.68700004 9930865
0.01378 0.063650474 0.68900001 9997162
0.015114286 0.063742861 0.69000006 10061424
0.016428573 0.063742861 0.69000006 8676982
0.017768573 0.063835248 0.69100004 7366249
0.019084763 0.063835248 0.69100004 7300700
-0.02931905 0.045538098 0.65500003 9207408
-0.028114285 0.045607619 0.65600002 9338481
-0.026905714 0.04567714 0.65700001 9338738
-0.025693335 0.045746669 0.65800005 9404273
-0.024440002 0.045746669 0.65800005 9338991
-0.023257142 0.045885716 0.66000003 9273452
-0.022033334 0.045955241 0.66100001 9273706
-0.020805717 0.046024766 0.66200006 9273711
-0.019544763 0.046024766 0.66200006 9273717
-0.01831143 0.046094287 0.66300005 9273459
-0.017048571 0.046094287 0.66300005 9338992
-0.015833333 0.046233334 0.66500002 9470066
-0.014566666 0.046233334 0.66500002 9404532
-0.01332 0.046302855 0.66600001 9405045
-0.012069525 0.046372388 0.66700006 9536374
-0.010799048 0.046372388 0.66700006 9667446
-0.0095571438 0.04651143 0.66900003 9733239
-0.0083076181 0.046650477 0.671 9799029
-0.007060953 0.046859052 0.67400002 9930355
-0.0057857144 0.046928573 0.67500001 10061430
-0.0044999998 0.046928573 0.67500001 10127738
-0.0032285715 0.047137145 0.67800003 10193273
-0.001937143 0.047137145 0.67800003 10127736
-0.00064571429 0.047137145 0.67800003 10062203
0.00064666668 0.047206666 0.67900002 9996670
0.0019400001 0.047206666 0.67900002 9996409
0.0032380952 0.047276188 0.68000001 9930611
0.0045333337 0.047276188 0.68000001 9865077
0.0058457148 0.047415242 0.68200004 9865079
0.0071552387 0.047484763 0.68300003 9865077
0.0084685711 0.047554284 0.68400002 9930355
0.009771429 0.047554284 0.68400002 10061428
0.011106667 0.047693335 0.68600005 9996149
0.012431429 0.047762856 0.68700004 9930612
0.01378 0.047901906 0.68900001 9930866
0.015114286 0.047971431 0.69000006 9930613
0.016428573 0.047971431 0.69000006 9996151
0.017768573 0.048040956 0.69100004 10061944
0.019084763 0.048040956 0.69100004 10128249
0.020400954 0.048040956 0.69100004 10194798
0.021811429 0.04824952 0.69400001 8550244
0.023133334 0.04824952 0.69400001 6972006
-0.17099716 0.0076390482 0.61700004 5656649
-0.096223809 -0.01094762 0.60500002 9996409
-0.095228568 -0.010965714 0.60600001 9996153
-0.094229534 -0.010983811 0.60700005 9930104
-0.093073338 -0.010983811 0.60700005 9864570
-0.09191715 -0.010983811 0.60700005 9799036
-0.090910487 -0.011001905 0.60800004 9799036
-0.089900002 -0.01102 0.60900003 9930363
-0.089031428 -0.01105619 0.611 10061948
-0.087867618 -0.01105619 0.611 10193790
-0.086845718 -0.011074287 0.61200005 10325378
-0.08568 -0.011074287 0.61200005 10522759
-0.084652379 -0.011092382 0.61300004 10784643
-0.083620951 -0.011110476 0.61400002 10587774
-0.082451433 -0.011110476 0.61400002 10390653
